0.00357883 0.522869 0.00063036 3 1 0
0.00357835 0.522864 0.000630529 3 1 0
0.00357791 0.522845 0.000630778 3 1 0
0.00357753 0.52281 0.000631104 3 1 0
0.00357718 0.522764 0.000631516 3 1 0
0.00357689 0.522705 0.000632011 3 1 0
0.00357664 0.522624 0.000632582 3 1 0
0.00357644 0.522537 0.000633231 3 1 0
0.00357629 0.522436 0.000633965 3 1 0
0.00357619 0.522329 0.000634786 3 1 0
0.00357613 0.5222 0.000635691 3 1 0
0.00357613 0.522057 0.000636682 3 1 0
0.00357618 0.521901 0.00063776 3 1 0
0.00357627 0.52173 0.000638923 3 1 0
0.00357642 0.521545 0.000640171 3 1 0
0.00357661 0.521347 0.000641505 3 1 0
0.00357686 0.521135 0.000642922 3 1 0
0.00357715 0.52091 0.000644423 3 1 0
0.00357749 0.52067 0.000646008 3 1 0
0.00357788 0.520419 0.000647674 3 1 0
0.00357831 0.520156 0.000649421 3 1 0
0.00357879 0.519885 0.000651248 3 1 0
0.00357932 0.519598 0.000653153 3 1 0
0.00357989 0.519299 0.000655136 3 1 0
0.00358051 0.518989 0.000657195 3 1 0
0.00358116 0.518668 0.000659328 3 1 0
0.00358186 0.518336 0.000661535 3 1 0
0.0035826 0.517994 0.000663814 3 1 0
0.00358338 0.517642 0.000666163 3 1 0
0.0035842 0.51728 0.000668582 3 1 0
0.00358506 0.516905 0.000671066 3 1 0
0.00358595 0.516524 0.000673618 3 1 0
0.00358595 0.516523 0.000673629 3 1 0
0.00358687 0.516139 0.000676245 3 1 0
0.00358785 0.515742 0.000678925 3 1 0
0.00358884 0.515336 0.000681667 3 1 0
0.00358987 0.514923 0.000684468 3 1 0
0.00359093 0.514503 0.000687329 3 1 0
0.00359203 0.514076 0.000690248 3 1 0
0.00359315 0.513639 0.000693221 3 1 0
0.0035943 0.513197 0.000696251 3 1 0
0.00359547 0.512749 0.000699335 3 1 0
0.00359668 0.512296 0.00070247 3 1 0
0.00359791 0.511836 0.000705659 3 1 0
0.00359916 0.51137 0.000708897 3 1 0
0.00360044 0.510901 0.000712184 3 1 0
0.00360175 0.510425 0.000715521 3 1 0
0.00360307 0.509944 0.000718905 3 1 0
0.00360442 0.509464 0.000722334 3 1 0
0.00360579 0.508974 0.00072581 3 1 0
0.00360717 0.50848 0.000729332 3 1 0
0.00360858 0.507989 0.000732895 3 1 0
0.00361001 0.507488 0.000736504 3 1 0
0.00361146 0.506983 0.000740155 3 1 0
0.00361292 0.506478 0.000743846 3 1 0
0.0036144 0.505966 0.000747581 3 1 0
0.0036159 0.50545 0.000751355 3 1 0
0.00361741 0.504934 0.000755169 3 1 0
0.00361894 0.504413 0.000759023 3 1 0
0.00362048 0.503888 0.000762916 3 1 0
0.00362204 0.503364 0.000766845 3 1 0
0.00362361 0.502838 0.000770814 3 1 0
0.0036252 0.502311 0.000774821 3 1 0
0.0036268 0.501776 0.000778862 3 1 0
0.00362841 0.501244 0.000782942 3 1 0
0.00363004 0.500711 0.000787059 3 1 0
0.00363167 0.500169 0.000791209 3 1 0
0.00363332 0.499632 0.000795397 3 1 0
0.00363498 0.499093 0.00079962 3 1 0
0.00363665 0.498551 0.000803875 3 1 0
0.00363833 0.498008 0.000808168 3 1 0
0.00364002 0.497464 0.000812495 3 1 0
0.00364173 0.49692 0.000816853 3 1 0
0.00364344 0.496372 0.000821248 3 1 0
0.00364516 0.495822 0.000825676 3 1 0
0.00364689 0.49527 0.000830136 3 1 0
0.00364863 0.494718 0.000834631 3 1 0
0.00365038 0.494165 0.000839159 3 1 0
0.00365213 0.49361 0.00084372 3 1 0
0.0036539 0.493055 0.000848313 3 1 0
0.00365567 0.492499 0.000852938 3 1 0
0.00365745 0.491941 0.000857603 3 1 0
0.00365924 0.491383 0.000862293 3 1 0
0.00366103 0.490823 0.000867014 3 1 0
0.00366283 0.490262 0.000871813 3 1 0
0.00366464 0.4897 0.000876597 3 1 0
0.00366646 0.489137 0.000881413 3 1 0
0.00366828 0.488579 0.000886273 3 1 0
0.00367011 0.488015 0.000891152 3 1 0
0.00367195 0.487451 0.000896063 3 1 0
0.00367379 0.486888 0.000900962 3 1 0
0.00367564 0.486325 0.000905939 3 1 0
0.00367749 0.485762 0.000910947 3 1 0
0.00367935 0.485185 0.000916012 3 1 0
0.00368122 0.484623 0.000921086 3 1 0
0.00368309 0.484059 0.000926192 3 1 0
0.00368496 0.483492 0.000931359 3 1 0
0.00368685 0.482923 0.000936529 3 1 0
0.00368873 0.482354 0.000941731 3 1 0
0.00369062 0.481798 0.000946987 3 1 0
0.00369252 0.48123 0.000952253 3 1 0
0.00369442 0.480661 0.00095755 3 1 0
0.00369633 0.480097 0.0009629 3 1 0
0.00369824 0.479529 0.000968261 3 1 0
0.00370015 0.47896 0.000973654 3 1 0
0.00370207 0.478395 0.00097905 3 1 0
0.003704 0.477827 0.000984493 3 1 0
0.00370593 0.477258 0.000989967 3 1 0
0.00370786 0.476691 0.000995462 3 1 0
0.00370979 0.476123 0.001001 3 1 0
0.00371173 0.475554 0.00100657 3 1 0
0.00371368 0.474986 0.00101216 3 1 0
0.00371563 0.474418 0.00101779 3 1 0
0.00371758 0.47385 0.00102346 3 1 0
0.00371953 0.473281 0.00102915 3 1 0
0.00372149 0.472713 0.00103488 3 1 0
0.00372345 0.472145 0.00104064 3 1 0
0.00372542 0.471576 0.00104643 3 1 0
0.00372739 0.471009 0.00105225 3 1 0
0.00372936 0.470441 0.00105811 3 1 0
0.00373134 0.469873 0.001064 3 1 0
0.00373332 0.469305 0.00106992 3 1 0
0.0037353 0.468738 0.00107587 3 1 0
0.00373728 0.46817 0.00108185 3 1 0
0.00373927 0.467603 0.00108787 3 1 0
0.00374126 0.467036 0.00109392 3 1 0
0.00374326 0.466468 0.00110001 3 1 0
0.00374525 0.465902 0.00110612 3 1 0
0.00374725 0.465335 0.00111227 3 1 0
0.00374926 0.464769 0.00111846 3 1 0
0.00375126 0.464202 0.00112467 3 1 0
0.00375327 0.463635 0.00113092 3 1 0
0.00375528 0.46307 0.0011372 3 1 0
0.00375729 0.462503 0.00114352 3 1 0
0.00375931 0.461937 0.00114986 3 1 0
0.00376133 0.461375 0.00115625 3 1 0
0.00376335 0.46081 0.00116266 3 1 0
0.00376537 0.460244 0.00116911 3 1 0
0.0037674 0.45968 0.00117559 3 1 0
0.00376943 0.459116 0.00118211 3 1 0
0.00377146 0.458553 0.00118865 3 1 0
0.00377349 0.457989 0.00119525 3 1 0
0.00377552 0.457426 0.00120186 3 1 0
0.00377756 0.456863 0.00120851 3 1 0
0.0037796 0.456298 0.00121519 3 1 0
0.00378164 0.455736 0.00122191 3 1 0
0.00378368 0.455175 0.00122866 3 1 0
0.00378573 0.454601 0.00123546 3 1 0
0.00378778 0.454042 0.00124228 3 1 0
0.00378983 0.453484 0.00124914 3 1 0
0.00379188 0.452927 0.00125607 3 1 0
0.00379393 0.452364 0.001263 3 1 0
0.00379599 0.451802 0.00126997 3 1 0
0.00379804 0.45125 0.00127701 3 1 0
0.0038001 0.45069 0.00128405 3 1 0
0.00380216 0.450131 0.00129112 3 1 0
0.00380423 0.449569 0.00129826 3 1 0
0.00380629 0.449012 0.00130541 3 1 0
0.00380836 0.448455 0.00131259 3 1 0
0.00381042 0.447887 0.00131978 3 1 0
0.00381249 0.447333 0.00132701 3 1 0
0.00381457 0.446778 0.00133428 3 1 0
0.00381664 0.446214 0.00134156 3 1 0
0.00381871 0.44566 0.0013489 3 1 0
0.00382079 0.445107 0.00135628 3 1 0
0.00382287 0.444554 0.00136368 3 1 0
0.00382495 0.443997 0.00137113 3 1 0
0.00382703 0.443439 0.00137862 3 1 0
0.00382911 0.44289 0.00138614 3 1 0
0.00383119 0.442334 0.00139371 3 1 0
0.00383328 0.441777 0.00140131 3 1 0
0.00383536 0.441228 0.00140894 3 1 0
0.00383745 0.440673 0.00141662 3 1 0
0.00383954 0.440118 0.00142433 3 1 0
0.00384163 0.439573 0.00143208 3 1 0
0.00384372 0.439019 0.00143987 3 1 0
0.00384582 0.438465 0.0014477 3 1 0
0.00384791 0.437918 0.00145556 3 1 0
0.00385001 0.437365 0.00146347 3 1 0
0.00385211 0.436812 0.00147141 3 1 0
0.00385421 0.436267 0.00147939 3 1 0
0.00385631 0.435715 0.00148741 3 1 0
0.00385841 0.435165 0.00149547 3 1 0
0.00386051 0.434618 0.00150358 3 1 0
0.00386261 0.43407 0.00151171 3 1 0
0.00386472 0.433526 0.00151989 3 1 0
0.00386682 0.432976 0.00152812 3 1 0
0.00386893 0.432432 0.00153637 3 1 0
0.00387104 0.431889 0.00154467 3 1 0
0.00387315 0.431339 0.00155301 3 1 0
0.00387526 0.430797 0.00156139 3 1 0
0.00387737 0.430254 0.00156981 3 1 0
0.00387948 0.429708 0.00157828 3 1 0
0.0038816 0.429162 0.00158677 3 1 0
0.00388371 0.428615 0.00159531 3 1 0
0.00388583 0.428084 0.0016039 3 1 0
0.00388795 0.42754 0.00161252 3 1 0
0.00389006 0.426996 0.00162118 3 1 0
0.00389218 0.426458 0.0016299 3 1 0
0.0038943 0.425917 0.00163865 3 1 0
0.00389642 0.425376 0.00164743 3 1 0
0.00389854 0.424836 0.00165623 3 1 0
0.00390067 0.424296 0.00166507 3 1 0
0.00390279 0.423756 0.00167395 3 1 0
0.00390491 0.423216 0.00168286 3 1 0
0.00390704 0.422678 0.00169183 3 1 0
0.00390917 0.422141 0.00170084 3 1 0
0.00391129 0.421603 0.00170988 3 1 0
0.00391342 0.421066 0.00171897 3 1 0
0.00391555 0.420529 0.00172811 3 1 0
0.00391768 0.419993 0.00173728 3 1 0
0.00391981 0.419457 0.0017465 3 1 0
0.00392194 0.418922 0.00175576 3 1 0
0.00392407 0.418387 0.00176507 3 1 0
0.0039262 0.417852 0.00177442 3 1 0
0.00392834 0.417318 0.00178381 3 1 0
0.00393047 0.416784 0.00179324 3 1 0
0.00393261 0.416252 0.00180272 3 1 0
0.00393474 0.415719 0.00181225 3 1 0
0.00393688 0.415185 0.00182182 3 1 0
0.00393902 0.414654 0.00183143 3 1 0
0.00394115 0.414124 0.00184109 3 1 0
0.00394329 0.41359 0.00185079 3 1 0
0.00394543 0.413061 0.00186053 3 1 0
0.00394757 0.412532 0.00187033 3 1 0
0.00394971 0.412003 0.00188016 3 1 0
0.00395185 0.411475 0.00189004 3 1 0
0.00395399 0.410946 0.00189997 3 1 0
0.00395614 0.410418 0.00190995 3 1 0
0.00395828 0.409891 0.00191996 3 1 0
0.00396042 0.409364 0.00193003 3 1 0
0.00396257 0.408837 0.00194014 3 1 0
0.00396471 0.40831 0.0019503 3 1 0
0.00396686 0.407784 0.0019605 3 1 0
0.003969 0.407257 0.00197076 3 1 0
0.00397115 0.40673 0.00198105 3 1 0
0.0039733 0.406204 0.0019914 3 1 0
0.00397544 0.405686 0.00200179 3 1 0
0.00397759 0.405162 0.00201222 3 1 0
0.00397974 0.404637 0.0020227 3 1 0
0.00398189 0.404117 0.00203324 3 1 0
0.00398404 0.403594 0.00204381 3 1 0
0.00398619 0.403071 0.00205444 3 1 0
0.00398834 0.402554 0.00206511 4 1 0
0.00399049 0.402032 0.00207583 3 1 0
0.00399264 0.401511 0.0020866 3 1 0
0.00399479 0.400994 0.00209741 3 1 0
0.00399694 0.400475 0.00210828 3 1 0
0.00399909 0.399957 0.00211919 3 1 0
0.00400125 0.399436 0.00213012 3 1 0
0.0040034 0.39892 0.0021411 4 1 0
0.00400555 0.398403 0.00215212 4 1 0
0.00400771 0.397882 0.00216319 4 1 0
0.00400986 0.397367 0.00217431 4 1 0
0.00401202 0.396853 0.00218548 4 1 0
0.00401417 0.396331 0.0021967 4 1 0
0.00401633 0.395818 0.00220797 4 1 0
0.00401848 0.395306 0.00221929 4 1 0
0.00402064 0.394788 0.00223066 4 1 0
0.0040228 0.394277 0.00224208 4 1 0
0.00402495 0.393766 0.00225355 4 1 0
0.00402711 0.393248 0.00226508 4 1 0
0.00402927 0.392738 0.00227665 4 1 0
0.00403142 0.392229 0.00228826 4 1 0
0.00403358 0.391714 0.00229995 4 1 0
0.00403574 0.391203 0.00231167 4 1 0
0.0040379 0.390695 0.00232344 4 1 0
0.00404006 0.390187 0.00233535 4 1 0
0.00404222 0.38968 0.00234722 4 1 0
0.00404437 0.389172 0.00235914 4 1 0
0.00404653 0.388658 0.00237105 4 1 0
0.00404869 0.388149 0.00238308 4 1 0
0.00405085 0.387644 0.00239516 4 1 0
0.00405301 0.387139 0.00240727 4 1 0
0.00405517 0.386634 0.00241946 4 1 0
0.00405733 0.38613 0.0024317 4 1 0
0.00405949 0.385618 0.002444 4 1 0
0.00406165 0.385113 0.00245635 4 1 0
0.00406381 0.384611 0.00246875 4 1 0
0.00406597 0.384106 0.00248121 4 1 0
0.00406814 0.383605 0.00249373 4 1 0
0.0040703 0.383103 0.00250629 4 1 0
0.00407246 0.3826 0.00251892 4 1 0
0.00407462 0.3821 0.00253159 4 1 0
0.00407678 0.381599 0.00254432 4 1 0
0.00407894 0.381095 0.00255711 4 1 0
0.0040811 0.380596 0.00256995 4 1 0
0.00408327 0.380097 0.00258284 4 1 0
0.00408543 0.379592 0.00259579 4 1 0
0.00408759 0.379095 0.00260879 4 1 0
0.00408975 0.378597 0.00262185 4 1 0
0.00409191 0.378093 0.00263495 4 1 0
0.00409408 0.377597 0.00264812 4 1 0
0.00409624 0.377102 0.00266135 4 1 0
0.0040984 0.376604 0.00267457 4 1 0
0.00410056 0.376105 0.0026879 4 1 0
0.00410272 0.37561 0.00270129 4 1 0
0.00410489 0.375119 0.0027148 4 1 0
0.00410705 0.374622 0.00272831 4 1 0
0.00410921 0.374125 0.00274187 4 1 0
0.00411137 0.373637 0.00275538 4 1 0
0.00411353 0.373143 0.00276901 4 1 0
0.0041157 0.372648 0.00278271 4 1 0
0.00411786 0.372158 0.00279641 4 1 0
0.00412002 0.371665 0.00281023 4 1 0
0.00412218 0.371172 0.0028241 4 1 0
0.00412434 0.370684 0.002838 4 1 0
0.0041265 0.370192 0.00285199 4 1 0
0.00412867 0.369701 0.00286604 4 1 0
0.00413083 0.369212 0.00288014 4 1 0
0.00413299 0.368722 0.0028943 4 1 0
0.00413515 0.368232 0.00290853 4 1 0
0.00413731 0.367745 0.00292281 4 1 0
0.00413947 0.367255 0.00293715 4 1 0
0.00414163 0.366766 0.00295156 4 1 0
0.00414379 0.366278 0.00296602 4 1 0
0.00414596 0.365789 0.00298054 4 1 0
0.00414812 0.365303 0.00299512 4 1 0
0.00415028 0.364817 0.00300976 4 1 0
0.00415244 0.364333 0.00302446 4 1 0
0.0041546 0.36385 0.00303923 4 1 0
0.00415676 0.363366 0.00305413 4 1 0
0.00415892 0.36288 0.00306903 4 1 0
0.00416108 0.362395 0.00308398 4 1 0
0.00416324 0.361915 0.00309911 4 1 0
0.00416539 0.361431 0.0031142 4 1 0
0.00416755 0.360949 0.00312935 4 1 0
0.00416971 0.360473 0.00314445 4 1 0
0.00417187 0.35999 0.00315967 4 1 0
0.00417403 0.359508 0.00317496 4 1 0
0.00417619 0.359033 0.00319024 4 1 0
0.00417834 0.358552 0.00320565 4 1 0
0.0041805 0.358072 0.00322113 4 1 0
0.00418266 0.357596 0.00323663 4 1 0
0.00418482 0.357118 0.00325224 4 1 0
0.00418697 0.356639 0.00326791 4 1 0
0.00418913 0.356162 0.00328363 4 1 0
0.00419128 0.355685 0.00329943 4 1 0
0.00419344 0.355209 0.00331529 4 1 0
0.0041956 0.354732 0.00333123 4 1 0
0.00419775 0.354258 0.00334722 4 1 0
0.00419991 0.353783 0.00336328 4 1 0
0.00420206 0.353303 0.00337942 4 1 0
0.00420421 0.352831 0.00339562 4 1 0
0.00420637 0.352359 0.00341187 4 1 0
0.00420852 0.35188 0.00342823 4 1 0
0.00421067 0.351407 0.00344462 4 1 0
0.00421283 0.350937 0.00346108 4 1 0
0.00421498 0.350469 0.00347765 4 1 0
0.00421713 0.349997 0.00349424 4 1 0
0.00421928 0.349525 0.0035109 4 1 0
0.00422143 0.349058 0.00352764 4 1 0
0.00422358 0.348587 0.00354438 4 1 0
0.00422573 0.348117 0.00356118 4 1 0
0.00422788 0.34765 0.00357802 4 1 0
0.00423003 0.347181 0.00359496 4 1 0
0.00423218 0.346712 0.00361197 4 1 0
0.00423433 0.346246 0.00362901 4 1 0
0.00423648 0.345778 0.00364616 4 1 0
0.00423863 0.345311 0.00366337 4 1 0
0.00424077 0.344844 0.00368064 4 1 0
0.00424292 0.344379 0.00369799 4 1 0
0.00424507 0.343914 0.00371541 4 1 0
0.00424721 0.343444 0.00373289 4 1 0
0.00424936 0.342977 0.00375045 4 1 0
0.0042515 0.342513 0.00376808 4 1 0
0.00425365 0.342054 0.00378577 4 1 0
0.00425579 0.34159 0.00380354 4 1 0
0.00425793 0.341126 0.00382138 4 1 0
0.00426008 0.340668 0.00383929 4 1 0
0.00426222 0.340206 0.00385727 4 1 0
0.00426436 0.339743 0.00387532 4 1 0
0.0042665 0.339285 0.00389349 4 1 0
0.00426864 0.338825 0.00391168 4 1 0
0.00427078 0.338365 0.00392995 4 1 0
0.00427292 0.337904 0.00394836 4 1 0
0.00427506 0.337446 0.00396677 4 1 0
0.0042772 0.336988 0.00398526 4 1 0
0.00427934 0.336528 0.0040039 4 1 0
0.00428147 0.336071 0.00402247 4 1 0
0.00428361 0.335614 0.00404112 4 1 0
0.00428574 0.335155 0.00405977 4 1 0
0.00428788 0.3347 0.00407857 4 1 0
0.00429001 0.334245 0.00409743 4 1 0
0.00429215 0.333785 0.00411632 4 1 0
0.00429428 0.333331 0.00413533 4 1 0
0.00429641 0.332878 0.00415442 4 1 0
0.00429855 0.332423 0.00417355 4 1 0
0.00430068 0.331967 0.00419279 4 1 0
0.00430281 0.331512 0.0042121 4 1 0
0.00430494 0.331064 0.00423148 4 1 0
0.00430707 0.33061 0.00425094 4 1 0
0.0043092 0.330156 0.00427047 4 1 0
0.00431132 0.329708 0.00429008 4 1 0
0.00431345 0.329255 0.00430977 4 1 0
0.00431558 0.328802 0.00432953 4 1 0
0.0043177 0.328359 0.00434938 4 1 0
0.00431983 0.327908 0.0043693 4 1 0
0.00432195 0.327457 0.00438929 4 1 0
0.00432408 0.327012 0.00440939 4 1 0
0.0043262 0.326563 0.00442953 4 1 0
0.00432832 0.326114 0.00444975 4 1 0
0.00433044 0.325669 0.0044701 4 1 0
0.00433256 0.325222 0.00449047 4 1 0
0.00433468 0.324775 0.00451093 4 1 0
0.0043368 0.324329 0.00453152 4 1 0
0.00433892 0.323884 0.00455207 4 1 0
0.00434104 0.323439 0.00457269 4 1 0
0.00434315 0.322993 0.00459335 4 1 0
0.00434527 0.32255 0.00461413 4 1 0
0.00434738 0.322106 0.00463499 4 1 0
0.0043495 0.321662 0.0046559 4 1 0
0.00435161 0.32122 0.00467691 4 1 0
0.00435372 0.320777 0.00469801 4 1 0
0.00435583 0.320335 0.00471916 4 1 0
0.00435794 0.319893 0.00474041 4 1 0
0.00436005 0.319452 0.00476175 4 1 0
0.00436216 0.319008 0.00478315 4 1 0
0.00436427 0.318569 0.00480465 4 1 0
0.00436638 0.31813 0.00482622 4 1 0
0.00436848 0.317686 0.00484788 4 1 0
0.00437059 0.317249 0.00486961 4 1 0
0.00437269 0.316812 0.00489143 4 1 0
0.0043748 0.31637 0.00491333 4 1 0
0.0043769 0.315932 0.0049353 4 1 0
0.004379 0.315497 0.00495736 4 1 0
0.0043811 0.31506 0.00497951 4 1 0
0.0043832 0.314621 0.00500173 4 1 0
0.0043853 0.314186 0.00502403 4 1 0
0.0043874 0.313755 0.0050465 4 1 0
0.00438949 0.313319 0.00506898 4 1 0
0.00439159 0.312883 0.00509153 4 1 0
0.00439368 0.312452 0.00511428 4 1 0
0.00439578 0.312018 0.00513701 4 1 0
0.00439787 0.311584 0.00515977 4 1 0
0.00439996 0.311153 0.00518251 4 1 0
0.00440205 0.31072 0.00520542 4 1 0
0.00440414 0.310287 0.00522842 4 1 0
0.00440623 0.309857 0.00525144 4 1 0
0.00440832 0.309425 0.00527461 4 1 0
0.0044104 0.308994 0.00529786 4 1 0
0.00441249 0.308564 0.00532116 4 1 0
0.00441457 0.308134 0.00534459 4 1 0
0.00441666 0.307705 0.0053681 4 1 0
0.00441874 0.307274 0.00539169 4 1 0
0.00442082 0.306846 0.00541537 4 1 0
0.0044229 0.306419 0.00543914 4 1 0
0.00442498 0.305987 0.00546301 4 1 0
0.00442706 0.305561 0.00548695 4 1 0
0.00442913 0.305135 0.00551098 4 1 0
0.00443121 0.304707 0.00553513 4 1 0
0.00443328 0.30428 0.00555933 4 1 0
0.00443536 0.303853 0.00558362 4 1 0
0.00443743 0.303434 0.00560806 4 1 0
0.0044395 0.303008 0.00563253 4 1 0
0.00444157 0.302583 0.00565709 4 1 0
0.00444364 0.302161 0.0056818 4 1 0
0.00444571 0.301738 0.00570646 4 1 0
0.00444777 0.301315 0.00573121 4 1 0
0.00444984 0.300891 0.00575598 4 1 0
0.0044519 0.300469 0.00578091 4 1 0
0.00445396 0.300048 0.00580593 4 1 0
0.00445603 0.299626 0.00583099 4 1 0
0.00445809 0.299206 0.00585619 4 1 0
0.00446015 0.298786 0.00588148 4 1 0
0.0044622 0.298366 0.00590683 4 1 0
0.00446426 0.297947 0.0059323 4 1 0
0.00446631 0.297527 0.00595786 4 1 0
0.00446837 0.297108 0.00598351 4 1 0
0.00447042 0.29669 0.00600925 4 1 0
0.00447247 0.296272 0.00603508 4 1 0
0.00447452 0.295852 0.00606101 4 1 0
0.00447657 0.295436 0.00608703 4 1 0
0.00447862 0.29502 0.00611314 4 1 0
0.00448067 0.294599 0.00613936 4 1 0
0.00448271 0.294185 0.00616565 4 1 0
0.00448476 0.293771 0.00619203 4 1 0
0.0044868 0.293356 0.00621855 4 1 0
0.00448884 0.292941 0.00624512 4 1 0
0.00449088 0.292525 0.00627179 4 1 0
0.00449292 0.292115 0.00629859 4 1 0
0.00449495 0.2917 0.00632544 4 1 0
0.00449699 0.291286 0.00635239 4 1 0
0.00449902 0.290878 0.00637936 4 1 0
0.00450106 0.290465 0.00640641 4 1 0
0.00450309 0.290052 0.00643356 4 1 0
0.00450512 0.289642 0.00646076 4 1 0
0.00450715 0.289231 0.0064881 4 1 0
0.00450917 0.288819 0.00651553 4 1 0
0.0045112 0.288412 0.00654302 4 1 0
0.00451322 0.288002 0.00657064 4 1 0
0.00451525 0.287592 0.00659836 4 1 0
0.00451727 0.287186 0.00662616 4 1 0
0.00451929 0.286777 0.00665406 4 1 0
0.00452131 0.286369 0.00668206 4 1 0
0.00452332 0.285962 0.00671015 4 1 0
0.00452534 0.285555 0.00673835 4 1 0
0.00452735 0.285149 0.00676663 4 1 0
0.00452937 0.284743 0.00679503 4 1 0
0.00453138 0.284337 0.00682352 4 1 0
0.00453339 0.283932 0.0068521 4 1 0
0.00453539 0.283525 0.00688083 4 1 0
0.0045374 0.283122 0.00690962 4 1 0
0.00453941 0.282718 0.0069385 4 1 0
0.00454141 0.282312 0.00696756 4 1 0
0.00454341 0.28191 0.00699664 4 1 0
0.00454541 0.281508 0.00702582 4 1 0
0.00454741 0.281101 0.00705515 4 1 0
0.00454941 0.280701 0.00708445 4 1 0
0.0045514 0.2803 0.00711384 4 1 0
0.0045534 0.279897 0.00714326 4 1 0
0.00455539 0.279495 0.00717286 4 1 0
0.00455738 0.279096 0.00720256 4 1 0
0.00455937 0.278697 0.00723231 4 1 0
0.00456136 0.278298 0.00726221 4 1 0
0.00456334 0.2779 0.00729221 4 1 0
0.00456533 0.277501 0.00732229 4 1 0
0.00456731 0.277102 0.0073525 4 1 0
0.00456929 0.276702 0.0073828 4 1 0
0.00457127 0.276308 0.0074132 4 1 0
0.00457325 0.275911 0.00744371 4 1 0
0.00457523 0.275513 0.00747432 4 1 0
0.0045772 0.275119 0.00750504 4 1 0
0.00457917 0.274723 0.00753586 4 1 0
0.00458114 0.274327 0.00756678 4 1 0
0.00458311 0.273933 0.00759784 4 1 0
0.00458508 0.273539 0.00762896 4 1 0
0.00458705 0.273144 0.00766019 4 1 0
0.00458901 0.272751 0.0076916 4 1 0
0.00459097 0.272357 0.00772303 4 1 0
0.00459293 0.271964 0.00775458 4 1 0
0.00459489 0.27157 0.00778621 4 1 0
0.00459685 0.271179 0.00781788 4 1 0
0.0045988 0.270788 0.00784964 4 1 0
0.00460076 0.270394 0.00788144 4 1 0
0.00460271 0.270004 0.00791342 4 1 0
0.00460466 0.269614 0.0079455 4 1 0
0.00460661 0.269223 0.00797765 4 1 0
0.00460855 0.268832 0.00800994 4 1 0
0.0046105 0.268442 0.00804234 4 1 0
0.00461244 0.268056 0.00807482 4 1 0
0.00461438 0.267668 0.00810743 4 1 0
0.00461632 0.26728 0.00814015 4 1 0
0.00461826 0.266893 0.00817298 4 1 0
0.00462019 0.266505 0.00820591 4 1 0
0.00462213 0.266118 0.00823895 4 1 0
0.00462406 0.26573 0.00827211 4 1 0
0.00462599 0.265345 0.00830536 4 1 0
0.00462791 0.26496 0.00833873 4 1 0
0.00462984 0.264571 0.00837224 4 1 0
0.00463176 0.264187 0.00840582 4 1 0
0.00463369 0.263803 0.00843951 4 1 0
0.00463561 0.263417 0.00847336 4 1 0
0.00463752 0.263033 0.00850726 4 1 0
0.00463944 0.262651 0.00854128 4 1 0
0.00464135 0.262267 0.00857543 4 1 0
0.00464327 0.261885 0.00860957 4 1 0
0.00464518 0.261504 0.00864382 4 1 0
0.00464708 0.261122 0.00867814 4 1 0
0.00464899 0.26074 0.00871261 4 1 0
0.0046509 0.260358 0.00874719 4 1 0
0.0046528 0.259981 0.00878183 4 1 0
0.0046547 0.2596 0.00881663 4 1 0
0.0046566 0.259219 0.00885154 4 1 0
0.00465849 0.258842 0.00888654 4 1 0
0.00466039 0.258463 0.00892167 4 1 0
0.00466228 0.258084 0.00895692 4 1 0
0.00466417 0.257707 0.00899226 4 1 0
0.00466606 0.257329 0.00902773 4 1 0
0.00466794 0.256951 0.00906331 4 1 0
0.00466983 0.256576 0.009099 4 1 0
0.00467171 0.256199 0.00913481 4 1 0
0.00467359 0.255823 0.00917072 4 1 0
0.00467546 0.255448 0.00920678 4 1 0
0.00467734 0.255072 0.00924292 4 1 0
0.00467921 0.254697 0.00927918 4 1 0
0.00468108 0.254322 0.00931558 4 1 0
0.00468295 0.253948 0.00935207 4 1 0
0.00468482 0.253575 0.00938867 4 1 0
0.00468668 0.253199 0.00942543 4 1 0
0.00468855 0.252827 0.00946226 4 1 0
0.00469041 0.252455 0.00949921 4 1 0
0.00469226 0.252081 0.00953615 4 1 0
0.00469412 0.251708 0.00957322 4 1 0
0.00469597 0.251336 0.00961041 4 1 0
0.00469783 0.250968 0.00964767 4 1 0
0.00469968 0.250597 0.00968509 4 1 0
0.00470152 0.250226 0.00972262 4 1 0
0.00470337 0.249858 0.00976025 4 1 0
0.00470521 0.249488 0.00979801 4 1 0
0.00470705 0.249118 0.00983589 4 1 0
0.00470889 0.24875 0.00987389 4 1 0
0.00471072 0.248381 0.009912 4 1 0
0.00471256 0.248013 0.00995023 4 1 0
0.00471439 0.247648 0.00998856 4 1 0
0.00471622 0.247281 0.010027 4 1 0
0.00471804 0.246914 0.0100656 4 1 0
0.00471987 0.246545 0.0101044 4 1 0
0.00472169 0.24618 0.0101432 4 1 0
0.00472351 0.245815 0.0101821 4 1 0
0.00472533 0.245447 0.0102213 4 1 0
0.00472714 0.245082 0.0102605 4 1 0
0.00472895 0.244718 0.0102998 4 1 0
0.00473076 0.244353 0.0103393 4 1 0
0.00473257 0.24399 0.0103788 4 1 0
0.00473438 0.243628 0.0104184 4 1 0
0.00473618 0.243264 0.010458 4 1 0
0.00473798 0.242902 0.0104978 4 1 0
0.00473978 0.242541 0.0105377 4 1 0
0.00474158 0.242178 0.0105777 4 1 0
0.00474337 0.241816 0.0106179 4 1 0
0.00474516 0.241456 0.0106582 4 1 0
0.00474695 0.241097 0.0106985 4 1 0
0.00474873 0.240736 0.0107391 4 1 0
0.00475052 0.240375 0.0107797 4 1 0
0.0047523 0.24002 0.0108205 4 1 0
0.00475408 0.23966 0.0108614 4 1 0
0.00475585 0.239301 0.0109024 4 1 0
0.00475763 0.238943 0.0109436 4 1 0
0.0047594 0.238585 0.0109848 4 1 0
0.00476117 0.238228 0.0110262 4 1 0
0.00476293 0.23787 0.0110678 4 1 0
0.0047647 0.237514 0.0111094 4 1 0
0.00476646 0.237158 0.0111512 4 1 0
0.00476821 0.236798 0.0111931 4 1 0
0.00476997 0.236444 0.0112351 4 1 0
0.00477172 0.23609 0.0112772 4 1 0
0.00477347 0.235736 0.0113195 4 1 0
0.00477522 0.235381 0.0113618 4 1 0
0.00477697 0.235026 0.0114042 4 1 0
0.00477871 0.234675 0.0114467 4 1 0
0.00478045 0.234321 0.0114893 4 1 0
0.00478219 0.233968 0.0115321 4 1 0
0.00478392 0.233617 0.0115749 4 1 0
0.00478566 0.233264 0.0116179 4 1 0
0.00478739 0.232912 0.0116611 4 1 0
0.00478911 0.232561 0.0117043 4 1 0
0.00479084 0.23221 0.0117477 4 1 0
0.00479256 0.23186 0.0117913 4 1 0
0.00479428 0.231509 0.0118349 4 1 0
0.00479599 0.23116 0.0118787 4 1 0
0.00479771 0.23081 0.0119226 4 1 0
0.00479942 0.23046 0.0119666 4 1 0
0.00480113 0.230112 0.0120108 4 1 0
0.00480283 0.229764 0.0120551 4 1 0
0.00480453 0.229414 0.0120995 4 1 0
0.00480623 0.229067 0.0121441 4 1 0
0.00480793 0.22872 0.0121888 4 1 0
0.00480962 0.22837 0.0122336 4 1 0
0.00481132 0.228025 0.0122785 4 1 0
0.004813 0.227679 0.0123236 4 1 0
0.00481469 0.227336 0.0123688 4 1 0
0.00481637 0.22699 0.0124141 4 1 0
0.00481805 0.226645 0.0124595 4 1 0
0.00481973 0.226301 0.0125049 4 1 0
0.00482141 0.225957 0.0125505 4 1 0
0.00482308 0.225613 0.0125962 4 1 0
0.00482475 0.225268 0.012642 4 1 0
0.00482641 0.224925 0.012688 4 1 0
0.00482808 0.224583 0.0127341 4 1 0
0.00482974 0.224238 0.0127803 4 1 0
0.00483139 0.223896 0.0128267 4 1 0
0.00483305 0.223554 0.0128732 4 1 0
0.0048347 0.223216 0.0129198 4 1 0
0.00483635 0.222875 0.0129666 4 1 0
0.00483799 0.222534 0.0130135 4 1 0
0.00483964 0.222195 0.0130605 4 1 0
0.00484128 0.221855 0.0131077 4 1 0
0.00484291 0.221516 0.0131549 4 1 0
0.00484455 0.221174 0.0132024 4 1 0
0.00484618 0.220836 0.0132499 4 1 0
0.0048478 0.220499 0.0132976 4 1 0
0.00484943 0.22016 0.0133455 4 1 0
0.00485105 0.219822 0.0133934 4 1 0
0.00485267 0.219484 0.0134415 4 1 0
0.00485429 0.219148 0.0134897 4 1 0
0.0048559 0.21881 0.0135381 4 1 0
0.00485751 0.218475 0.0135866 4 1 0
0.00485911 0.218141 0.0136352 4 1 0
0.00486072 0.217805 0.013684 4 1 0
0.00486232 0.21747 0.0137328 4 1 0
0.00486391 0.217137 0.0137817 4 1 0
0.00486551 0.216802 0.0138307 4 1 0
0.0048671 0.216468 0.0138799 4 1 0
0.00486869 0.216136 0.0139292 4 1 0
0.00487027 0.215803 0.0139786 4 1 0
0.00487185 0.21547 0.0140282 4 1 0
0.00487343 0.215138 0.0140779 4 1 0
0.00487501 0.214806 0.0141277 4 1 0
0.00487658 0.214474 0.0141777 4 1 0
0.00487815 0.214142 0.0142278 4 1 0
0.00487971 0.213811 0.0142781 4 1 0
0.00488128 0.213481 0.0143285 4 1 0
0.00488284 0.213147 0.014379 4 1 0
0.00488439 0.212818 0.0144297 4 1 0
0.00488595 0.21249 0.0144805 4 1 0
0.0048875 0.212161 0.0145315 4 1 0
0.00488904 0.211832 0.0145826 4 1 0
0.00489059 0.211503 0.0146338 4 1 0
0.00489212 0.211177 0.0146852 4 1 0
0.00489366 0.210849 0.0147367 4 1 0
0.00489519 0.210521 0.0147883 4 1 0
0.00489672 0.210196 0.0148401 4 1 0
0.00489825 0.209869 0.0148921 4 1 0
0.00489977 0.209542 0.0149441 4 1 0
0.00490129 0.209216 0.0149963 4 1 0
0.00490281 0.208891 0.0150485 4 1 0
0.00490432 0.208566 0.0151008 4 1 0
0.00490583 0.208238 0.0151533 4 1 0
0.00490734 0.207915 0.0152059 4 1 0
0.00490884 0.207591 0.0152587 4 1 0
0.00491034 0.207268 0.0153116 4 1 0
0.00491184 0.206944 0.0153647 4 1 0
0.00491333 0.20662 0.0154179 4 1 0
0.00491482 0.2063 0.0154712 4 1 0
0.00491631 0.205977 0.0155246 4 1 0
0.00491779 0.205655 0.0155782 4 1 0
0.00491927 0.205335 0.015632 4 1 0
0.00492075 0.205014 0.0156859 4 1 0
0.00492222 0.204693 0.0157399 4 1 0
0.00492369 0.204372 0.0157941 4 1 0
0.00492515 0.204052 0.0158484 4 1 0
0.00492661 0.203733 0.0159029 4 1 0
0.00492807 0.203411 0.0159575 4 1 0
0.00492953 0.203093 0.0160122 4 1 0
0.00493098 0.202775 0.0160671 4 1 0
0.00493242 0.202457 0.0161222 4 1 0
0.00493387 0.202139 0.0161774 4 1 0
0.00493531 0.201821 0.0162327 4 1 0
0.00493675 0.201504 0.0162882 4 1 0
0.00493818 0.201188 0.0163438 4 1 0
0.00493961 0.200871 0.0163995 4 1 0
0.00494103 0.200552 0.0164555 4 1 0
0.00494246 0.200237 0.0165114 4 1 0
0.00494388 0.199922 0.0165674 4 1 0
0.00494529 0.199606 0.0166236 4 1 0
0.0049467 0.199291 0.0166799 4 1 0
0.00494811 0.198977 0.0167364 4 1 0
0.00494951 0.198664 0.016793 4 1 0
0.00495091 0.19835 0.0168498 4 1 0
0.00495231 0.198036 0.0169068 4 1 0
0.0049537 0.197724 0.0169638 4 1 0
0.00495509 0.197411 0.017021 4 1 0
0.00495648 0.197098 0.0170784 4 1 0
0.00495786 0.196788 0.0171359 4 1 0
0.00495924 0.196476 0.0171936 4 1 0
0.00496061 0.196164 0.0172514 4 1 0
0.00496198 0.195854 0.0173093 4 1 0
0.00496335 0.195544 0.0173674 4 1 0
0.00496471 0.195233 0.0174256 4 1 0
0.00496607 0.194924 0.017484 4 1 0
0.00496742 0.194615 0.0175426 4 1 0
0.00496877 0.194305 0.0176012 4 1 0
0.00497012 0.193997 0.0176601 4 1 0
0.00497146 0.193688 0.017719 4 1 0
0.0049728 0.19338 0.0177782 4 1 0
0.00497414 0.193071 0.0178374 4 1 0
0.00497547 0.192764 0.0178969 4 1 0
0.0049768 0.192458 0.0179564 4 1 0
0.00497812 0.192148 0.0180162 4 1 0
0.00497944 0.191842 0.018076 4 1 0
0.00498076 0.191537 0.018136 4 1 0
0.00498207 0.191233 0.0181961 4 1 0
0.00498338 0.190928 0.0182563 4 1 0
0.00498468 0.190622 0.0183166 4 1 0
0.00498598 0.190319 0.0183771 4 1 0
0.00498728 0.190014 0.0184377 4 1 0
0.00498857 0.18971 0.0184985 4 1 0
0.00498986 0.189407 0.0185594 4 1 0
0.00499114 0.189104 0.0186205 4 1 0
0.00499242 0.188801 0.0186817 4 1 0
0.0049937 0.188496 0.0187431 4 1 0
0.00499497 0.188194 0.0188046 4 1 0
0.00499623 0.187893 0.0188663 4 1 0
0.0049975 0.18759 0.0189281 4 1 0
0.00499876 0.187289 0.0189901 4 1 0
0.00500001 0.186988 0.0190522 4 1 0
0.00500126 0.186689 0.0191145 4 1 0
0.00500251 0.186388 0.019177 4 1 0
0.00500375 0.186088 0.0192395 4 1 0
0.00500499 0.18579 0.0193023 4 1 0
0.00500622 0.18549 0.0193652 4 1 0
0.00500745 0.185191 0.0194282 4 1 0
0.00500868 0.184894 0.0194914 4 1 0
0.0050099 0.184596 0.0195548 4 1 0
0.00501112 0.184298 0.0196183 4 1 0
0.00501233 0.184001 0.0196819 4 1 0
0.00501354 0.183704 0.0197458 4 1 0
0.00501474 0.183408 0.0198097 4 1 0
0.00501594 0.183111 0.0198738 4 1 0
0.00501714 0.182815 0.0199381 4 1 0
0.00501833 0.18252 0.0200025 4 1 0
0.00501952 0.182223 0.020067 4 1 0
0.0050207 0.181929 0.0201316 4 1 0
0.00502188 0.181634 0.0201964 4 1 0
0.00502305 0.181337 0.0202613 4 1 0
0.00502422 0.181044 0.0203264 4 1 0
0.00502538 0.180751 0.0203916 4 1 0
0.00502654 0.180459 0.020457 4 1 0
0.0050277 0.180165 0.0205225 4 1 0
0.00502885 0.179872 0.0205882 4 1 0
0.00503 0.179581 0.0206541 4 1 0
0.00503114 0.179289 0.0207201 4 1 0
0.00503228 0.178997 0.0207862 4 1 0
0.00503341 0.178706 0.0208524 4 1 0
0.00503454 0.178415 0.0209188 4 1 0
0.00503567 0.178125 0.0209855 4 1 0
0.00503679 0.177835 0.0210522 4 1 0
0.0050379 0.177545 0.0211192 4 1 0
0.00503901 0.177255 0.0211862 4 1 0
0.00504012 0.176966 0.0212535 4 1 0
0.00504122 0.176677 0.0213209 4 1 0
0.00504232 0.176388 0.0213885 4 1 0
0.00504341 0.176099 0.0214562 4 1 0
0.00504449 0.175812 0.021524 4 1 0
0.00504558 0.175524 0.0215921 4 1 0
0.00504665 0.175236 0.0216603 4 1 0
0.00504773 0.174949 0.0217286 4 1 0
0.0050488 0.174663 0.0217971 4 1 0
0.00504986 0.174375 0.0218658 4 1 0
0.00505092 0.174089 0.0219346 4 1 0
0.00505197 0.173803 0.0220036 4 1 0
0.00505302 0.17352 0.0220727 4 1 0
0.00505407 0.173234 0.0221419 4 1 0
0.00505511 0.172949 0.0222112 4 1 0
0.00505614 0.172666 0.0222807 4 1 0
0.00505717 0.172382 0.0223503 4 1 0
0.0050582 0.172098 0.0224201 4 1 0
0.00505922 0.171815 0.02249 4 1 0
0.00506023 0.171532 0.0225601 4 1 0
0.00506124 0.17125 0.0226304 4 1 0
0.00506225 0.170965 0.0227009 4 1 0
0.00506325 0.170684 0.0227715 4 1 0
0.00506424 0.170402 0.0228423 4 1 0
0.00506523 0.170121 0.0229132 4 1 0
0.00506622 0.16984 0.0229843 4 1 0
0.0050672 0.169558 0.0230556 4 1 0
0.00506818 0.169279 0.023127 4 1 0
0.00506915 0.168999 0.0231986 4 1 0
0.00507011 0.16872 0.0232703 4 1 0
0.00507107 0.16844 0.0233423 4 1 0
0.00507203 0.168161 0.0234143 4 1 0
0.00507298 0.167883 0.0234866 4 1 0
0.00507392 0.167604 0.023559 4 1 0
0.00507486 0.167326 0.0236315 4 1 0
0.00507579 0.167049 0.0237043 4 1 0
0.00507672 0.16677 0.0237771 4 1 0
0.00507765 0.166493 0.0238501 4 1 0
0.00507857 0.166217 0.0239234 4 1 0
0.00507948 0.165941 0.0239967 4 1 0
0.00508039 0.165664 0.0240701 4 1 0
0.00508129 0.165388 0.0241436 4 1 0
0.00508219 0.165115 0.0242173 4 1 0
0.00508308 0.164839 0.0242912 4 1 0
0.00508397 0.164565 0.0243653 4 1 0
0.00508485 0.16429 0.0244395 4 1 0
0.00508572 0.164016 0.0245139 4 1 0
0.00508659 0.163742 0.0245885 4 1 0
0.00508746 0.163468 0.0246632 4 1 0
0.00508832 0.163194 0.0247381 4 1 0
0.00508917 0.162921 0.0248132 4 1 0
0.00509002 0.16265 0.0248884 4 1 0
0.00509086 0.162377 0.0249638 4 1 0
0.0050917 0.162105 0.0250394 4 1 0
0.00509253 0.161834 0.0251151 4 1 0
0.00509336 0.161562 0.025191 4 1 0
0.00509418 0.161291 0.0252671 4 1 0
0.005095 0.161021 0.0253433 4 1 0
0.0050958 0.160751 0.0254197 4 1 0
0.00509661 0.160481 0.0254962 4 1 0
0.00509741 0.160212 0.025573 4 1 0
0.0050982 0.159942 0.0256499 4 1 0
0.00509899 0.159673 0.025727 4 1 0
0.00509977 0.159405 0.0258043 4 1 0
0.00510054 0.159136 0.0258816 4 1 0
0.00510131 0.158868 0.025959 4 1 0
0.00510207 0.1586 0.0260366 4 1 0
0.00510283 0.158333 0.0261144 4 1 0
0.00510358 0.158066 0.0261923 4 1 0
0.00510433 0.157798 0.0262704 4 1 0
0.00510507 0.157532 0.0263487 4 1 0
0.0051058 0.157266 0.0264271 4 1 0
0.00510653 0.156999 0.0265058 4 1 0
0.00510725 0.156734 0.0265845 4 1 0
0.00510797 0.156469 0.0266635 4 1 0
0.00510868 0.156203 0.0267426 4 1 0
0.00510938 0.155939 0.0268219 4 1 0
0.00511008 0.155675 0.0269014 4 1 0
0.00511077 0.15541 0.026981 4 1 0
0.00511146 0.155146 0.0270609 4 1 0
0.00511214 0.154883 0.0271408 4 1 0
0.00511281 0.154621 0.027221 4 1 0
0.00511348 0.154358 0.0273014 4 1 0
0.00511414 0.154096 0.0273819 4 1 0
0.00511479 0.153834 0.0274625 4 1 0
0.00511544 0.153572 0.0275434 4 1 0
0.00511608 0.15331 0.0276244 4 1 0
0.00511671 0.153049 0.0277056 4 1 0
0.00511734 0.152788 0.0277869 4 1 0
0.00511797 0.152527 0.0278685 4 1 0
0.00511858 0.152268 0.0279502 4 1 0
0.00511919 0.152008 0.028032 4 1 0
0.00511979 0.151748 0.0281139 4 1 0
0.00512039 0.151489 0.028196 4 1 0
0.00512098 0.15123 0.0282782 4 1 0
0.00512156 0.150971 0.0283606 4 1 0
0.00512214 0.150714 0.0284433 4 1 0
0.00512271 0.150455 0.028526 4 1 0
0.00512327 0.150198 0.028609 4 1 0
0.00512383 0.14994 0.028692 4 1 0
0.00512438 0.149683 0.0287753 4 1 0
0.00512492 0.149426 0.0288588 4 1 0
0.00512546 0.149169 0.0289424 4 1 0
0.00512599 0.148913 0.0290262 4 1 0
0.00512651 0.148657 0.0291102 4 1 0
0.00512703 0.148401 0.0291944 4 1 0
0.00512754 0.148146 0.0292787 4 1 0
0.00512804 0.147891 0.0293633 4 1 0
0.00512853 0.147636 0.029448 4 1 0
0.00512902 0.147381 0.0295328 4 1 0
0.0051295 0.147127 0.0296179 4 1 0
0.00512998 0.146874 0.0297031 4 1 0
0.00513044 0.146621 0.0297885 4 1 0
0.0051309 0.146367 0.0298741 4 1 0
0.00513135 0.146115 0.0299599 4 1 0
0.0051318 0.145862 0.0300459 4 1 0
0.00513224 0.14561 0.030132 4 1 0
0.00513267 0.145359 0.030218 4 1 0
0.00513309 0.145107 0.0303043 4 1 0
0.0051335 0.144856 0.0303908 4 1 0
0.00513391 0.144604 0.0304775 4 1 0
0.00513431 0.144354 0.0305644 4 1 0
0.00513471 0.144103 0.0306514 4 1 0
0.00513509 0.143853 0.0307387 4 1 0
0.00513547 0.143603 0.0308261 4 1 0
0.00513584 0.143354 0.0309136 4 1 0
0.0051362 0.143104 0.0310014 4 1 0
0.00513656 0.142855 0.0310893 4 1 0
0.0051369 0.142607 0.0311775 4 1 0
0.00513724 0.142358 0.0312657 4 1 0
0.00513758 0.14211 0.0313542 4 1 0
0.0051379 0.141863 0.0314429 4 1 0
0.00513822 0.141614 0.0315318 4 1 0
0.00513852 0.141367 0.0316208 4 1 0
0.00513882 0.14112 0.03171 4 1 0
0.00513911 0.140873 0.0317994 4 1 0
0.0051394 0.140627 0.0318889 4 1 0
0.00513967 0.140381 0.0319787 4 1 0
0.00513994 0.140136 0.0320686 4 1 0
0.0051402 0.13989 0.0321587 4 1 0
0.00514045 0.139645 0.032249 4 1 0
0.00514069 0.139401 0.0323394 4 1 0
0.00514093 0.139156 0.0324301 4 1 0
0.00514115 0.138912 0.0325207 4 1 0
0.00514137 0.138669 0.0326118 4 1 0
0.00514158 0.138425 0.0327028 4 1 0
0.00514178 0.138181 0.032794 4 1 0
0.00514197 0.137939 0.0328853 4 1 0
0.00514216 0.137696 0.0329769 4 1 0
0.00514233 0.137454 0.0330686 4 1 0
0.0051425 0.137212 0.0331606 4 1 0
0.00514265 0.13697 0.0332527 4 1 0
0.0051428 0.136729 0.033345 4 1 0
0.00514294 0.136487 0.0334376 4 1 0
0.00514307 0.136247 0.0335303 4 1 0
0.00514319 0.136006 0.0336231 4 1 0
0.0051433 0.135765 0.0337161 4 1 0
0.0051434 0.135525 0.0338094 4 1 0
0.0051435 0.135285 0.0339028 4 1 0
0.00514358 0.135045 0.0339964 4 1 0
0.00514366 0.134806 0.0340902 4 1 0
0.00514372 0.134567 0.0341842 4 1 0
0.00514378 0.134328 0.0342784 4 1 0
0.00514382 0.13409 0.0343727 4 1 0
0.00514386 0.133852 0.0344673 4 1 0
0.00514389 0.133614 0.0345619 4 1 0
0.0051439 0.133377 0.0346569 4 1 0
0.00514391 0.13314 0.034752 4 1 0
0.00514391 0.133073 0.0347787 4 1 0
0.00514391 0.132836 0.034874 4 1 0
0.00514389 0.1326 0.0349695 4 1 0
0.00514387 0.132363 0.0350651 4 1 0
0.00514383 0.132128 0.035161 4 1 0
0.00514379 0.131892 0.0352571 4 1 0
0.00514373 0.131656 0.0353533 4 1 0
0.00514367 0.131422 0.0354496 4 1 0
0.00514359 0.131187 0.035546 4 1 0
0.00514351 0.130952 0.0356427 4 1 0
0.00514341 0.130717 0.0357396 4 1 0
0.0051433 0.130484 0.0358366 4 1 0
0.00514318 0.130251 0.0359338 4 1 0
0.00514305 0.130018 0.0360313 4 1 0
0.00514292 0.129784 0.0361289 4 1 0
0.00514276 0.129552 0.0362267 4 1 0
0.0051426 0.129319 0.0363247 4 1 0
0.00514243 0.129087 0.0364229 4 1 0
0.00514225 0.128855 0.0365213 4 1 0
0.00514205 0.128623 0.0366199 4 1 0
0.00514185 0.128392 0.0367186 4 1 0
0.00514163 0.12816 0.0368176 4 1 0
0.0051414 0.127929 0.0369167 4 1 0
0.00514116 0.127699 0.0370161 4 1 0
0.00514091 0.127469 0.0371156 4 1 0
0.00514065 0.127239 0.0372153 4 1 0
0.00514037 0.127009 0.0373153 4 1 0
0.00514008 0.126779 0.0374153 4 1 0
0.00513978 0.12655 0.0375156 4 1 0
0.00513947 0.126321 0.0376161 4 1 0
0.00513915 0.126092 0.0377167 4 1 0
0.00513881 0.125864 0.0378176 4 1 0
0.00513846 0.125636 0.0379187 4 1 0
0.0051381 0.125408 0.0380197 4 1 0
0.00513773 0.125181 0.0381212 4 1 0
0.00513734 0.124953 0.0382228 4 1 0
0.00513695 0.124727 0.0383245 4 1 0
0.00513653 0.1245 0.0384265 4 1 0
0.00513611 0.124274 0.0385286 4 1 0
0.00513567 0.124047 0.0386307 4 1 0
0.00513522 0.123821 0.0387332 4 1 0
0.00513476 0.123596 0.038836 4 1 0
0.00513428 0.123371 0.0389389 4 1 0
0.00513379 0.123146 0.0390419 4 1 0
0.00513328 0.122921 0.0391451 4 1 0
0.00513276 0.122697 0.0392484 4 1 0
0.00513223 0.122473 0.039352 4 1 0
0.00513168 0.122249 0.0394558 4 1 0
0.00513112 0.122026 0.0395599 4 1 0
0.00513054 0.121802 0.0396641 4 1 0
0.00512995 0.121579 0.0397685 4 1 0
0.00512935 0.121356 0.0398732 4 1 0
0.00512873 0.121134 0.0399781 4 1 0
0.00512809 0.120912 0.0400831 4 1 0
0.00512745 0.120689 0.0401883 4 1 0
0.00512678 0.120468 0.0402937 4 1 0
0.0051261 0.120246 0.0403994 4 1 0
0.00512541 0.120025 0.0405051 4 1 0
0.00512469 0.119804 0.0406111 4 1 0
0.00512397 0.119583 0.0407174 4 1 0
0.00512322 0.119363 0.0408235 4 1 0
0.00512247 0.119143 0.0409301 4 1 0
0.00512169 0.118923 0.0410369 4 1 0
0.0051209 0.118702 0.0411438 4 1 0
0.00512009 0.118483 0.041251 4 1 0
0.00511927 0.118264 0.0413583 4 1 0
0.00511843 0.118046 0.0414655 4 1 0
0.00511757 0.117828 0.0415732 4 1 0
0.00511669 0.117609 0.0416811 4 1 0
0.0051158 0.117391 0.0417892 4 1 0
0.00511489 0.117174 0.0418975 4 1 0
0.00511396 0.116956 0.042006 4 1 0
0.00511301 0.116739 0.0421148 4 1 0
0.00511205 0.116522 0.0422237 4 1 0
0.00511107 0.116305 0.0423329 4 1 0
0.00511006 0.116088 0.0424421 4 1 0
0.00510904 0.115872 0.0425517 4 1 0
0.005108 0.115656 0.0426614 4 1 0
0.00510695 0.115441 0.0427714 4 1 0
0.00510587 0.115226 0.0428816 4 1 0
0.00510477 0.11501 0.0429918 4 1 0
0.00510365 0.114795 0.0431023 4 1 0
0.00510252 0.114581 0.0432129 4 1 0
0.00510136 0.114366 0.0433237 4 1 0
0.00510018 0.114153 0.0434346 4 1 0
0.00509898 0.113939 0.0435459 4 1 0
0.00509776 0.113726 0.0436574 4 1 0
0.00509652 0.113512 0.0437691 4 1 0
0.00509526 0.113299 0.043881 4 1 0
0.00509398 0.113086 0.0439931 4 1 0
0.00509267 0.112873 0.0441055 4 1 0
0.00509134 0.112661 0.0442181 4 1 0
0.00508999 0.112449 0.0443309 4 1 0
0.00508862 0.112238 0.0444439 4 1 0
0.00508722 0.112026 0.0445571 4 1 0
0.0050858 0.111815 0.0446704 4 1 0
0.00508436 0.111604 0.0447839 4 1 0
0.00508289 0.111394 0.0448976 4 1 0
0.0050814 0.111183 0.0450115 4 1 0
0.00507988 0.110973 0.0451256 4 1 0
0.00507834 0.110763 0.0452399 4 1 0
0.00507677 0.110553 0.0453544 4 1 0
0.00507518 0.110343 0.0454691 4 1 0
0.00507356 0.110134 0.0455841 4 1 0
0.00507192 0.109925 0.0456993 4 1 0
0.00507025 0.109717 0.0458148 4 1 0
0.00506855 0.109508 0.0459305 4 1 0
0.00506683 0.1093 0.0460464 4 1 0
0.00506508 0.109092 0.0461625 4 1 0
0.0050633 0.108884 0.0462787 4 1 0
0.00506149 0.108677 0.0463951 4 1 0
0.00505965 0.10847 0.0465117 4 1 0
0.00505778 0.108263 0.0466285 4 1 0
0.00505589 0.108056 0.0467456 4 1 0
0.00505396 0.107849 0.0468629 4 1 0
0.00505201 0.107643 0.0469804 4 1 0
0.00505002 0.107437 0.047098 4 1 0
0.005048 0.107232 0.0472159 4 1 0
0.00504595 0.107026 0.047334 4 1 0
0.00504387 0.106821 0.0474524 4 1 0
0.00504175 0.106616 0.0475711 4 1 0
0.0050396 0.106411 0.04769 4 1 0
0.00503742 0.106207 0.047809 4 1 0
0.00503521 0.106002 0.0479282 4 1 0
0.00503296 0.105798 0.0480475 4 1 0
0.00503067 0.105594 0.0481671 4 1 0
0.00502835 0.105391 0.0482869 4 1 0
0.00502599 0.105187 0.048407 4 1 0
0.00502359 0.104984 0.0485273 4 1 0
0.00502116 0.104781 0.0486478 4 1 0
0.00501869 0.104579 0.0487686 4 1 0
0.00501618 0.104376 0.0488896 4 1 0
0.00501363 0.104174 0.049011 4 1 0
0.00501105 0.103973 0.0491325 4 1 0
0.00500842 0.103771 0.0492541 4 1 0
0.00500575 0.10357 0.0493757 4 1 0
0.00500303 0.103368 0.0494978 4 1 0
0.00500028 0.103167 0.04962 4 1 0
0.00499748 0.102966 0.0497425 4 1 0
0.00499464 0.102766 0.0498653 4 1 0
0.00499175 0.102566 0.0499883 4 1 0
0.00498882 0.102365 0.0501115 4 1 0
0.00498584 0.102166 0.0502349 4 1 0
0.00498281 0.101966 0.0503586 4 1 0
0.00497974 0.101767 0.0504827 4 1 0
0.00497661 0.101568 0.0506069 4 1 0
0.00497344 0.101369 0.0507312 4 1 0
0.00497022 0.10117 0.0508555 4 1 0
0.00496694 0.100972 0.0509803 4 1 0
0.00496361 0.100774 0.0511053 4 1 0
0.00496023 0.100576 0.0512305 4 1 0
0.00495679 0.100378 0.0513561 4 1 0
0.0049533 0.100181 0.0514818 4 1 0
0.00494975 0.0999834 0.0516078 4 1 0
0.00494615 0.0997863 0.0517341 4 1 0
0.00494248 0.0995894 0.0518606 4 1 0
0.00493876 0.0993928 0.0519873 4 1 0
0.00493497 0.0991964 0.0521141 4 1 0
0.00493112 0.0990002 0.0522412 4 1 0
0.00492721 0.098804 0.0523684 4 1 0
0.00492323 0.0986082 0.052496 4 1 0
0.00491919 0.0984126 0.0526239 4 1 0
0.00491508 0.0982171 0.052752 4 1 0
0.0049109 0.098022 0.0528804 4 1 0
0.00490665 0.0978271 0.0530091 4 1 0
0.00490233 0.0976327 0.053138 4 1 0
0.00489793 0.0974382 0.0532671 4 1 0
0.00489346 0.097244 0.0533964 4 1 0
0.00488892 0.09705 0.0535259 4 1 0
0.00488429 0.0968562 0.0536556 4 1 0
0.00487959 0.0966625 0.0537856 4 1 0
0.0048748 0.0964687 0.0539159 4 1 0
0.00486993 0.0962755 0.0540464 4 1 0
0.00486498 0.0960824 0.0541773 4 1 0
0.00485994 0.0958898 0.0543084 4 1 0
0.00485481 0.0956972 0.0544398 4 1 0
0.00484958 0.0955048 0.0545714 4 1 0
0.00484427 0.0953127 0.0547033 4 1 0
0.00483886 0.0951206 0.0548354 4 1 0
0.00483335 0.0949288 0.0549677 4 1 0
0.00482774 0.0947367 0.0551001 4 1 0
0.00482202 0.0945453 0.055233 4 1 0
0.00481621 0.0943541 0.0553661 4 1 0
0.00481028 0.0941635 0.0554995 4 1 0
0.00480425 0.0939726 0.0556332 4 1 0
0.0047981 0.093782 0.0557672 4 1 0
0.00479184 0.0935915 0.0559015 4 1 0
0.00478545 0.0934012 0.056036 4 1 0
0.00477895 0.0932111 0.0561707 4 1 0
0.00477232 0.0930207 0.0563057 4 1 0
0.00476556 0.092831 0.0564409 4 1 0
0.00475867 0.0926415 0.0565764 4 1 0
0.00475164 0.0924525 0.0567121 4 1 0
0.00474448 0.0922633 0.0568482 4 1 0
0.00473717 0.0920743 0.0569846 4 1 0
0.00472971 0.0918855 0.0571214 4 1 0
0.00472211 0.0916968 0.0572584 4 1 0
0.00471435 0.0915083 0.0573957 4 1 0
0.00470643 0.0913196 0.0575333 4 1 0
0.00469834 0.0911315 0.057671 4 1 0
0.00469009 0.0909435 0.0578091 4 1 0
0.00468166 0.090756 0.0579473 4 1 0
0.00467306 0.0905683 0.058086 4 1 0
0.00466427 0.0903808 0.058225 4 1 0
0.00465529 0.0901931 0.0583643 4 1 0
0.00464611 0.0900059 0.0585039 4 1 0
0.00463673 0.0898189 0.0586438 4 1 0
0.00462715 0.0896323 0.0587843 4 1 0
0.00461735 0.0894456 0.0589248 4 1 0
0.00460733 0.089259 0.0590655 4 1 0
0.00459707 0.0890721 0.0592066 4 1 0
0.00458659 0.0888859 0.059348 4 1 0
0.00457586 0.0886998 0.0594898 4 1 0
0.00456487 0.088514 0.0596317 4 1 0
0.00455363 0.0883281 0.0597741 4 1 0
0.00454212 0.0881423 0.0599169 4 1 0
0.00453033 0.0879566 0.0600599 4 1 0
0.00451825 0.0877711 0.0602033 4 1 0
0.00450587 0.0875858 0.060347 4 1 0
0.00449318 0.0874003 0.0604911 4 1 0
0.00448017 0.0872151 0.0606355 4 1 0
0.00446683 0.0870301 0.0607802 4 1 0
0.00445314 0.0868455 0.0609254 4 1 0
0.0044391 0.0866606 0.0610708 4 1 0
0.00442468 0.0864759 0.0612165 4 1 0
0.00440988 0.0862913 0.0613627 4 1 0
0.00439468 0.0861069 0.0615091 4 1 0
0.00437906 0.0859226 0.0616559 4 1 0
0.00436301 0.0857384 0.061803 4 1 0
0.00434651 0.0855543 0.0619505 4 1 0
0.00432954 0.0853703 0.0620983 4 1 0
0.00431209 0.0851863 0.0622465 4 1 0
0.00429412 0.0850025 0.062395 4 1 0
0.00427563 0.0848188 0.0625439 4 1 0
0.00425659 0.0846351 0.0626931 4 1 0
0.00423697 0.0844515 0.0628427 4 1 0
0.00421675 0.084268 0.0629927 4 1 0
0.00419591 0.0840849 0.063143 4 1 0
0.00417441 0.0839018 0.0632936 4 1 0
0.00415223 0.0837188 0.0634446 4 1 0
0.00412933 0.0835357 0.0635957 4 1 0
0.0041057 0.083353 0.0637471 4 1 0
0.00408128 0.0831705 0.0638989 4 1 0
0.00405605 0.0829882 0.0640509 4 1 0
0.00402997 0.082806 0.0642032 4 1 0
0.004003 0.0826239 0.0643555 4 1 0
0.0039751 0.0824425 0.064508 4 1 0
0.00394623 0.0822611 0.0646607 4 1 0
0.00391634 0.0820801 0.0648131 4 1 0
0.0038854 0.0818998 0.0649656 4 1 0
0.00385335 0.0817197 0.0651179 4 1 0
0.00382016 0.0815406 0.0652698 4 1 0
0.00378576 0.0813621 0.0654212 4 1 0
0.00375014 0.0811848 0.0655719 4 1 0
0.00371323 0.0810084 0.0657216 4 1 0
0.00367501 0.0808337 0.0658699 4 1 0
0.00363546 0.0806611 0.0660165 4 1 0
0.00359456 0.0804906 0.0661606 4 1 0
0.00355234 0.0803234 0.0663013 4 1 0
0.00350884 0.0801601 0.0664377 4 1 0
0.00346416 0.0800022 0.0665682 4 1 0
0.00341852 0.0798512 0.066691 4 1 0
0.00337225 0.0797096 0.0668033 4 1 0
0.00332584 0.0795804 0.0669019 4 1 0
0.00328007 0.0794673 0.0669826 4 1 0
0.00323589 0.0793744 0.0670412 4 1 0
0.00319441 0.0793052 0.0670743 4 1 0
0.00315655 0.0792617 0.0670804 4 1 0
0.00312286 0.0792434 0.0670601 4 1 0
0.00309338 0.0792482 0.0670165 4 1 0
0.00306783 0.0792729 0.0669532 4 1 0
0.00304573 0.0793141 0.0668737 4 1 0
0.00302656 0.0793687 0.0667812 4 1 0
0.00300985 0.0794343 0.0666783 4 1 0
0.00299521 0.0795085 0.066567 4 1 0
0.00298228 0.0795901 0.0664494 4 1 0
0.00297081 0.0796775 0.0663267 4 1 0
0.00296055 0.0797695 0.0661995 4 1 0
0.00295133 0.0798658 0.066069 4 1 0
0.002943 0.0799651 0.0659362 4 1 0
0.00293543 0.0800671 0.0658008 4 1 0
0.00292853 0.0801715 0.0656638 4 1 0
0.00292219 0.0802777 0.0655256 4 1 0
0.00291636 0.0803854 0.0653864 4 1 0
0.00291097 0.0804943 0.0652465 4 1 0
0.00290597 0.0806041 0.0651062 4 1 0
0.00290132 0.0807147 0.0649654 4 1 0
0.00289698 0.0808258 0.0648244 4 1 0
0.00289292 0.0809374 0.0646836 4 1 0
0.0028891 0.0810493 0.0645427 4 1 0
0.00288551 0.0811613 0.0644019 4 1 0
0.00288212 0.0812733 0.0642615 4 1 0
0.00287891 0.0813852 0.0641215 4 1 0
0.00287587 0.0814968 0.063982 4 1 0
0.00287299 0.0816085 0.0638432 4 1 0
0.00287024 0.08172 0.0637051 4 1 0
0.00286762 0.0818308 0.0635678 4 1 0
0.00286511 0.081941 0.0634307 4 1 0
0.00286272 0.0820507 0.0632944 4 1 0
0.00286042 0.0821602 0.063159 4 1 0
0.00285822 0.0822687 0.0630246 4 1 0
0.0028561 0.0823764 0.0628914 4 1 0
0.00285405 0.0824832 0.062759 4 1 0
0.00285209 0.0825896 0.062627 4 1 0
0.00285018 0.0826949 0.0624962 4 1 0
0.00284834 0.0827987 0.0623668 4 1 0
0.00284656 0.0829024 0.0622387 4 1 0
0.00284484 0.0830045 0.0621114 4 1 0
0.00284316 0.0831054 0.061985 4 1 0
0.00284153 0.0832052 0.06186 4 1 0
0.00283995 0.083304 0.0617364 4 1 0
0.0028384 0.0834008 0.0616145 4 1 0
0.0028369 0.0834967 0.0614931 4 1 0
0.00283543 0.0835912 0.0613733 4 1 0
0.002834 0.083684 0.0612551 4 1 0
0.00283259 0.0837753 0.0611388 4 1 0
0.00283122 0.0838643 0.0610234 4 1 0
0.00282988 0.0839525 0.0609094 4 1 0
0.00282856 0.0840378 0.0607974 4 1 0
0.00282726 0.0841223 0.0606874 4 1 0
0.00282599 0.0842035 0.060579 4 1 0
0.00282474 0.0842838 0.0604717 4 1 0
0.00282351 0.0843611 0.0603668 4 1 0
0.0028223 0.0844365 0.0602641 4 1 0
0.00282111 0.0845094 0.0601638 4 1 0
0.00281993 0.0845789 0.0600644 4 1 0
0.00281877 0.0846471 0.0599675 4 1 0
0.00281762 0.0847115 0.0598735 4 1 0
0.00281649 0.0847733 0.0597822 4 1 0
0.00281537 0.0848321 0.0596921 4 1 0
0.00281426 0.0848871 0.0596051 4 1 0
0.00281316 0.0849397 0.0595213 4 1 0
0.00281208 0.0849881 0.0594403 4 1 0
0.002811 0.0850332 0.0593613 4 1 0
0.00280993 0.0850741 0.0592859 4 1 0
0.00280887 0.0851113 0.0592143 4 1 0
0.00280782 0.0851444 0.0591453 4 1 0
0.00280677 0.0851724 0.0590797 4 1 0
0.00280573 0.0851971 0.0590181 4 1 0
0.0028047 0.0852161 0.0589606 4 1 0
0.00280368 0.0852311 0.0589065 4 1 0
0.00280266 0.0852406 0.058856 4 1 0
