0.00354659 0.525307 0.000621867 3 1 0
0.00354682 0.525182 0.000622652 3 1 0
0.00354706 0.525056 0.000623458 3 1 0
0.00354731 0.524928 0.000624268 3 1 0
0.00354756 0.524799 0.000625088 3 1 0
0.00354782 0.524667 0.00062593 3 1 0
0.00354809 0.524534 0.000626774 3 1 0
0.00354836 0.524399 0.000627629 3 1 0
0.00354865 0.524262 0.000628505 3 1 0
0.00354893 0.524123 0.000629383 3 1 0
0.00354923 0.523983 0.000630271 3 1 0
0.00354953 0.523841 0.000631175 3 1 0
0.00354983 0.523698 0.000632085 3 1 0
0.00355015 0.523552 0.000633006 3 1 0
0.00355047 0.523406 0.000633944 3 1 0
0.00355079 0.523257 0.000634886 3 1 0
0.00355113 0.523108 0.000635839 3 1 0
0.00355146 0.522956 0.0006368 3 1 0
0.00355181 0.522803 0.000637774 3 1 0
0.00355216 0.522649 0.000638757 3 1 0
0.00355251 0.522493 0.000639742 3 1 0
0.00355288 0.522336 0.000640746 3 1 0
0.00355324 0.522177 0.00064176 3 1 0
0.00355362 0.522017 0.000642766 3 1 0
0.003554 0.521856 0.0006438 3 1 0
0.00355438 0.521693 0.000644843 3 1 0
0.00355477 0.521529 0.000645875 3 1 0
0.00355517 0.521364 0.000646937 3 1 0
0.00355557 0.521197 0.000648008 3 1 0
0.00355597 0.521029 0.000649119 3 1 0
0.00355638 0.52086 0.000650209 3 1 0
0.0035568 0.52069 0.000651308 3 1 0
0.00355722 0.520518 0.000652424 3 1 0
0.00355765 0.520345 0.000653542 3 1 0
0.00355808 0.520171 0.000654668 3 1 0
0.00355851 0.519996 0.0006558 3 1 0
0.00355895 0.51982 0.000656943 3 1 0
0.0035594 0.519643 0.000658094 3 1 0
0.00355985 0.519464 0.000659256 3 1 0
0.00356031 0.519285 0.000660425 3 1 0
0.00356077 0.519105 0.000661602 3 1 0
0.00356123 0.518923 0.000662785 3 1 0
0.0035617 0.518741 0.000663979 3 1 0
0.00356217 0.518557 0.000665181 3 1 0
0.00356265 0.518373 0.000666391 3 1 0
0.00356313 0.518187 0.000667609 3 1 0
0.00356362 0.518001 0.000668835 3 1 0
0.0035641 0.517814 0.000670068 3 1 0
0.0035646 0.517626 0.00067131 3 1 0
0.0035651 0.517437 0.00067256 3 1 0
0.0035656 0.517248 0.000673824 3 1 0
0.0035661 0.517057 0.00067509 3 1 0
0.00356661 0.516865 0.000676363 3 1 0
0.00356713 0.516673 0.000677629 3 1 0
0.00356765 0.51648 0.000678917 3 1 0
0.00356817 0.516286 0.000680213 3 1 0
0.00356869 0.516091 0.000681493 3 1 0
0.00356922 0.515895 0.000682803 3 1 0
0.00356975 0.515699 0.000684121 3 1 0
0.00357029 0.515498 0.000685434 3 1 0
0.00357083 0.5153 0.000686765 3 1 0
0.00357137 0.515101 0.000688104 3 1 0
0.00357191 0.514906 0.000689468 3 1 0
0.00357246 0.514706 0.000690821 3 1 0
0.00357301 0.514505 0.000692181 3 1 0
0.00357357 0.514305 0.000693582 3 1 0
0.00357413 0.514103 0.000694955 3 1 0
0.00357469 0.5139 0.000696336 3 1 0
0.00357526 0.513697 0.000697716 3 1 0
0.00357582 0.513493 0.00069911 3 1 0
0.00357639 0.513289 0.000700511 3 1 0
0.00357697 0.513085 0.000701905 3 1 0
0.00357754 0.512879 0.000703319 3 1 0
0.00357812 0.512673 0.000704739 3 1 0
0.00357871 0.512466 0.000706156 3 1 0
0.00357929 0.512259 0.000707589 3 1 0
0.00357988 0.512051 0.000709029 3 1 0
0.00358047 0.511843 0.000710469 3 1 0
0.00358107 0.511634 0.000711921 3 1 0
0.00358166 0.511424 0.00071338 3 1 0
0.00358226 0.511215 0.00071484 3 1 0
0.00358286 0.511005 0.000716311 3 1 0
0.00358347 0.510794 0.000717789 3 1 0
0.00358407 0.510583 0.000719266 3 1 0
0.00358468 0.510371 0.000720755 3 1 0
0.00358529 0.510158 0.000722251 3 1 0
0.00358591 0.509944 0.000723744 3 1 0
0.00358652 0.509731 0.000725251 3 1 0
0.00358714 0.509517 0.000726765 3 1 0
0.00358776 0.509306 0.000728285 3 1 0
0.00358839 0.509092 0.00072981 3 1 0
0.00358901 0.508877 0.000731342 3 1 0
0.00358964 0.508662 0.000732882 3 1 0
0.00359027 0.508447 0.000734425 3 1 0
0.0035909 0.508231 0.000735974 3 1 0
0.00359154 0.508016 0.000737534 3 1 0
0.00359218 0.507799 0.000739095 3 1 0
0.00359281 0.507582 0.000740661 3 1 0
0.00359345 0.507365 0.000742238 3 1 0
0.0035941 0.507147 0.000743815 3 1 0
0.00359474 0.506929 0.000745398 3 1 0
0.00359539 0.50671 0.00074699 3 1 0
0.00359604 0.506491 0.000748585 3 1 0
0.00359669 0.506271 0.000750185 3 1 0
0.00359734 0.506055 0.000751816 3 1 0
0.003598 0.505836 0.000753428 3 1 0
0.00359865 0.505615 0.000755045 3 1 0
0.00359931 0.505397 0.000756672 3 1 0
0.00359997 0.505177 0.000758299 3 1 0
0.00360063 0.504956 0.00075993 3 1 0
0.0036013 0.504736 0.000761548 3 1 0
0.00360196 0.504515 0.000763192 3 1 0
0.00360263 0.504293 0.000764842 3 1 0
0.0036033 0.504072 0.000766487 3 1 0
0.00360397 0.50385 0.000768147 3 1 0
0.00360464 0.503628 0.000769813 3 1 0
0.00360532 0.503406 0.000771477 3 1 0
0.00360599 0.503183 0.000773153 3 1 0
0.00360667 0.50296 0.000774834 3 1 0
0.00360735 0.502737 0.000776516 3 1 0
0.00360803 0.502514 0.000778208 3 1 0
0.00360871 0.50229 0.000779906 3 1 0
0.0036094 0.502067 0.000781605 3 1 0
0.00361008 0.501842 0.000783313 3 1 0
0.00361077 0.501618 0.000785026 3 1 0
0.00361146 0.501393 0.000786742 3 1 0
0.00361215 0.501168 0.000788465 3 1 0
0.00361284 0.500943 0.000790194 3 1 0
0.00361353 0.500718 0.000791932 3 1 0
0.00361422 0.500492 0.000793671 3 1 0
0.00361492 0.500266 0.000795415 3 1 0
0.00361562 0.50004 0.000797182 3 1 0
0.00361631 0.499814 0.000798933 3 1 0
0.00361701 0.499587 0.00080069 3 1 0
0.00361772 0.499365 0.000802444 3 1 0
0.00361842 0.499138 0.000804214 3 1 0
0.00361912 0.498911 0.000805988 3 1 0
0.00361983 0.498685 0.00080774 3 1 0
0.00362053 0.498458 0.000809524 3 1 0
0.00362124 0.49823 0.000811314 3 1 0
0.00362195 0.498005 0.000813092 3 1 0
0.00362266 0.497777 0.000814892 3 1 0
0.00362337 0.497549 0.000816697 3 1 0
0.00362408 0.497322 0.000818493 3 1 0
0.0036248 0.497094 0.000820308 3 1 0
0.00362551 0.496865 0.000822128 3 1 0
0.00362623 0.496636 0.000823939 3 1 0
0.00362694 0.496407 0.000825769 3 1 0
0.00362766 0.496178 0.000827604 3 1 0
0.00362838 0.495953 0.000829427 3 1 0
0.0036291 0.495726 0.000831272 3 1 0
0.00362983 0.495499 0.000833121 3 1 0
0.00363055 0.495278 0.000834991 3 1 0
0.00363127 0.495049 0.00083685 3 1 0
0.003632 0.49482 0.000838715 3 1 0
0.00363272 0.494584 0.000840578 3 1 0
0.00363345 0.494355 0.000842453 3 1 0
0.00363418 0.494125 0.000844332 3 1 0
0.00363491 0.493906 0.000846233 3 1 0
0.00363564 0.493677 0.000848122 3 1 0
0.00363637 0.493447 0.000850017 3 1 0
0.0036371 0.493216 0.000851922 3 1 0
0.00363784 0.492986 0.000853827 3 1 0
0.00363857 0.492756 0.000855736 3 1 0
0.00363931 0.492531 0.000857648 3 1 0
0.00364004 0.492301 0.000859567 3 1 0
0.00364078 0.49207 0.000861491 3 1 0
0.00364152 0.49184 0.000863387 3 1 0
0.00364226 0.49161 0.000865321 3 1 0
0.003643 0.491379 0.000867259 3 1 0
0.00364374 0.491154 0.000869194 3 1 0
0.00364448 0.490924 0.000871143 3 1 0
0.00364522 0.490693 0.000873096 3 1 0
0.00364597 0.490464 0.000875037 3 1 0
0.00364671 0.490234 0.000877 3 1 0
0.00364746 0.490003 0.000878967 3 1 0
0.00364821 0.489775 0.000880931 3 1 0
0.00364895 0.489544 0.000882909 3 1 0
0.0036497 0.489313 0.000884891 3 1 0
0.00365045 0.489084 0.000886874 3 1 0
0.0036512 0.488853 0.000888866 3 1 0
0.00365195 0.488622 0.000890863 3 1 0
0.0036527 0.488393 0.000892861 3 1 0
0.00365346 0.488162 0.000894868 3 1 0
0.00365421 0.48793 0.00089688 3 1 0
0.00365496 0.487701 0.000898891 3 1 0
0.00365572 0.48747 0.000900913 3 1 0
0.00365647 0.487238 0.000902939 3 1 0
0.00365723 0.487009 0.000904965 3 1 0
0.00365799 0.486777 0.000907001 3 1 0
0.00365875 0.486546 0.000909042 3 1 0
0.0036595 0.486316 0.000911083 3 1 0
0.00366026 0.486085 0.000913134 3 1 0
0.00366102 0.485853 0.00091519 3 1 0
0.00366178 0.485625 0.000917248 3 1 0
0.00366255 0.485394 0.000919313 3 1 0
0.00366331 0.485162 0.000921383 3 1 0
0.00366407 0.484934 0.000923461 3 1 0
0.00366484 0.484703 0.000925541 3 1 0
0.0036656 0.484471 0.000927626 3 1 0
0.00366637 0.484241 0.000929717 3 1 0
0.00366713 0.48401 0.000931812 3 1 0
0.0036679 0.483779 0.000933912 3 1 0
0.00366867 0.483549 0.000936022 3 1 0
0.00366944 0.483318 0.000938132 3 1 0
0.0036702 0.483087 0.000940247 3 1 0
0.00367097 0.482857 0.000942373 3 1 0
0.00367174 0.482626 0.000944498 3 1 0
0.00367252 0.482395 0.000946627 3 1 0
0.00367329 0.482163 0.000948763 3 1 0
0.00367406 0.481932 0.000950902 3 1 0
0.00367483 0.481702 0.000953047 3 1 0
0.00367561 0.481468 0.000955195 3 1 0
0.00367638 0.481237 0.000957349 3 1 0
0.00367715 0.481007 0.000959509 3 1 0
0.00367793 0.480775 0.000961719 3 1 0
0.00367871 0.480545 0.000963889 3 1 0
0.00367948 0.480314 0.000966063 4 1 0
0.00368026 0.480083 0.000968233 4 1 0
0.00368104 0.479852 0.000970412 4 1 0
0.00368182 0.479622 0.000972596 4 1 0
0.00368259 0.47939 0.000974811 4 1 0
0.00368337 0.479159 0.000977005 4 1 0
0.00368415 0.478928 0.000979203 4 1 0
0.00368494 0.478697 0.000981425 4 1 0
0.00368572 0.478466 0.000983639 4 1 0
0.0036865 0.478235 0.000985855 4 1 0
0.00368728 0.478003 0.000988071 4 1 0
0.00368806 0.477773 0.0009903 4 1 0
0.00368885 0.477542 0.000992534 4 1 0
0.00368963 0.47731 0.000994769 4 1 0
0.00369042 0.47708 0.000997014 4 1 0
0.0036912 0.476849 0.000999263 4 1 0
0.00369199 0.476618 0.00100152 4 1 0
0.00369277 0.476387 0.00100377 4 1 0
0.00369356 0.476157 0.00100603 4 1 0
0.00369435 0.475923 0.00100827 4 1 0
0.00369514 0.475693 0.00101054 4 1 0
0.00369592 0.475463 0.00101281 4 1 0
0.00369671 0.475231 0.00101508 4 1 0
0.0036975 0.475001 0.00101736 4 1 0
0.00369829 0.474771 0.00101965 4 1 0
0.00369908 0.47454 0.00102199 4 1 0
0.00369987 0.47431 0.00102428 4 1 0
0.00370067 0.47408 0.00102659 4 1 0
0.00370146 0.473848 0.00102891 4 1 0
0.00370225 0.473618 0.00103123 4 1 0
0.00370304 0.473388 0.00103356 4 1 0
0.00370384 0.473157 0.00103585 4 1 0
0.00370463 0.472927 0.00103819 4 1 0
0.00370543 0.472696 0.00104053 4 1 0
0.00370622 0.472465 0.00104284 4 1 0
0.00370702 0.472235 0.00104519 4 1 0
0.00370781 0.472005 0.00104755 4 1 0
0.00370861 0.471775 0.00104988 4 1 0
0.00370941 0.471545 0.00105225 4 1 0
0.0037102 0.471314 0.00105462 4 1 0
0.003711 0.471084 0.00105697 4 1 0
0.0037118 0.470854 0.00105935 4 1 0
0.0037126 0.470624 0.00106173 4 1 0
0.0037134 0.470393 0.00106411 4 1 0
0.0037142 0.470163 0.0010665 4 1 0
0.003715 0.469933 0.0010689 4 1 0
0.0037158 0.469703 0.00107129 4 1 0
0.0037166 0.469473 0.0010737 4 1 0
0.0037174 0.469243 0.00107611 4 1 0
0.0037182 0.469013 0.00107852 4 1 0
0.003719 0.468783 0.00108095 4 1 0
0.0037198 0.468553 0.00108338 4 1 0
0.00372061 0.468323 0.00108581 4 1 0
0.00372141 0.468093 0.00108825 4 1 0
0.00372221 0.467864 0.00109069 4 1 0
0.00372302 0.467633 0.00109314 4 1 0
0.00372382 0.467404 0.00109559 4 1 0
0.00372463 0.467174 0.00109806 4 1 0
0.00372543 0.466944 0.00110051 4 1 0
0.00372624 0.466715 0.00110299 4 1 0
0.00372705 0.466486 0.00110546 4 1 0
0.00372785 0.466256 0.00110793 4 1 0
0.00372866 0.466027 0.00111042 4 1 0
0.00372947 0.465797 0.00111291 4 1 0
0.00373027 0.465567 0.00111541 4 1 0
0.00373108 0.465338 0.00111791 4 1 0
0.00373189 0.465109 0.00112042 4 1 0
0.0037327 0.464879 0.00112292 4 1 0
0.00373351 0.46465 0.00112544 4 1 0
0.00373432 0.464421 0.00112796 4 1 0
0.00373513 0.464192 0.0011305 4 1 0
0.00373594 0.463963 0.00113303 4 1 0
0.00373675 0.463734 0.00113557 4 1 0
0.00373756 0.463505 0.00113811 4 1 0
0.00373837 0.463276 0.00114066 4 1 0
0.00373918 0.463048 0.00114322 4 1 0
0.00374 0.462818 0.00114577 4 1 0
0.00374081 0.46259 0.00114834 4 1 0
0.00374162 0.462361 0.00115091 4 1 0
0.00374244 0.462132 0.00115349 4 1 0
0.00374325 0.461904 0.00115607 4 1 0
0.00374406 0.461676 0.00115866 4 1 0
0.00374488 0.461447 0.00116125 4 1 0
0.00374569 0.461219 0.00116384 4 1 0
0.00374651 0.46099 0.00116645 4 1 0
0.00374732 0.460761 0.00116906 4 1 0
0.00374814 0.460533 0.00117167 4 1 0
0.00374895 0.460305 0.00117429 4 1 0
0.00374977 0.460076 0.00117692 4 1 0
0.00375059 0.459848 0.00117955 4 1 0
0.0037514 0.459621 0.00118219 4 1 0
0.00375222 0.459392 0.00118484 4 1 0
0.00375304 0.459164 0.00118749 4 1 0
0.00375386 0.458937 0.00119013 4 1 0
0.00375468 0.458708 0.00119277 4 1 0
0.00375549 0.45848 0.00119543 4 1 0
0.00375631 0.458253 0.00119809 4 1 0
0.00375713 0.458025 0.00120072 4 1 0
0.00375795 0.457798 0.0012034 4 1 0
0.00375877 0.45757 0.00120608 4 1 0
0.00375959 0.457342 0.0012087 4 1 0
0.00376041 0.457115 0.00121139 4 1 0
0.00376123 0.456888 0.00121408 4 1 0
0.00376205 0.456661 0.00121682 4 1 0
0.00376288 0.456433 0.00121953 4 1 0
0.0037637 0.456206 0.00122224 4 1 0
0.00376452 0.455979 0.001225 4 1 0
0.00376534 0.455752 0.00122772 4 1 0
0.00376616 0.455525 0.00123045 4 1 0
0.00376699 0.455298 0.00123321 4 1 0
0.00376781 0.455071 0.00123595 4 1 0
0.00376863 0.454843 0.00123869 4 1 0
0.00376946 0.454617 0.00124145 4 1 0
0.00377028 0.45439 0.0012442 4 1 0
0.00377111 0.454163 0.00124696 4 1 0
0.00377193 0.453934 0.00124978 4 1 0
0.00377275 0.453707 0.00125255 4 1 0
0.00377358 0.45348 0.00125533 4 1 0
0.00377441 0.453257 0.00125806 4 1 0
0.00377523 0.45303 0.00126085 4 1 0
0.00377606 0.452804 0.00126365 4 1 0
0.00377688 0.452569 0.00126637 4 1 0
0.00377771 0.452342 0.00126918 4 1 0
0.00377854 0.452115 0.001272 4 1 0
0.00377936 0.451898 0.00127481 4 1 0
0.00378019 0.451672 0.00127764 4 1 0
0.00378102 0.451446 0.00128047 4 1 0
0.00378185 0.45122 0.00128328 4 1 0
0.00378267 0.450993 0.00128612 4 1 0
0.0037835 0.450767 0.00128897 4 1 0
0.00378433 0.450544 0.00129184 4 1 0
0.00378516 0.450318 0.0012947 4 1 0
0.00378599 0.450092 0.00129756 4 1 0
0.00378682 0.449866 0.00130043 4 1 0
0.00378765 0.449641 0.00130331 4 1 0
0.00378848 0.449416 0.00130619 4 1 0
0.00378931 0.449187 0.00130906 4 1 0
0.00379014 0.448962 0.00131196 4 1 0
0.00379097 0.448737 0.00131486 4 1 0
0.0037918 0.448514 0.00131777 4 1 0
0.00379263 0.448289 0.00132068 4 1 0
0.00379346 0.448065 0.0013236 4 1 0
0.00379429 0.447839 0.00132654 4 1 0
0.00379513 0.447614 0.00132947 4 1 0
0.00379596 0.44739 0.0013324 4 1 0
0.00379679 0.447163 0.00133534 4 1 0
0.00379762 0.446939 0.00133829 4 1 0
0.00379846 0.446715 0.00134124 4 1 0
0.00379929 0.446486 0.00134418 4 1 0
0.00380012 0.446263 0.00134714 4 1 0
0.00380095 0.446039 0.00135011 4 1 0
0.00380179 0.445815 0.00135309 4 1 0
0.00380262 0.445591 0.00135607 4 1 0
0.00380346 0.445368 0.00135906 4 1 0
0.00380429 0.445139 0.00136204 4 1 0
0.00380513 0.444916 0.00136504 4 1 0
0.00380596 0.444692 0.00136804 4 1 0
0.0038068 0.444468 0.00137106 4 1 0
0.00380763 0.444245 0.00137407 4 1 0
0.00380847 0.444022 0.0013771 4 1 0
0.0038093 0.443796 0.00138012 4 1 0
0.00381014 0.443573 0.00138316 4 1 0
0.00381097 0.44335 0.0013862 4 1 0
0.00381181 0.443123 0.00138924 4 1 0
0.00381265 0.442901 0.00139229 4 1 0
0.00381348 0.442678 0.00139535 4 1 0
0.00381432 0.442454 0.00139842 4 1 0
0.00381516 0.442231 0.00140149 4 1 0
0.00381599 0.442009 0.00140456 4 1 0
0.00381683 0.441783 0.00140764 4 1 0
0.00381767 0.441561 0.00141073 4 1 0
0.00381851 0.441339 0.00141383 4 1 0
0.00381935 0.441118 0.00141695 4 1 0
0.00382018 0.440896 0.00142006 4 1 0
0.00382102 0.440673 0.00142317 4 1 0
0.00382186 0.44045 0.00142628 4 1 0
0.0038227 0.440228 0.0014294 4 1 0
0.00382354 0.440006 0.00143254 4 1 0
0.00382438 0.439782 0.00143569 4 1 0
0.00382522 0.43956 0.00143883 4 1 0
0.00382606 0.439338 0.00144198 4 1 0
0.0038269 0.439115 0.00144515 4 1 0
0.00382774 0.438893 0.00144831 4 1 0
0.00382858 0.438672 0.00145148 4 1 0
0.00382942 0.438446 0.00145463 4 1 0
0.00383026 0.438224 0.0014578 4 1 0
0.0038311 0.438003 0.00146098 4 1 0
0.00383194 0.437774 0.00146418 4 1 0
0.00383278 0.437553 0.00146737 4 1 0
0.00383363 0.437332 0.00147056 4 1 0
0.00383447 0.437108 0.00147374 4 1 0
0.00383531 0.436888 0.00147695 4 1 0
0.00383615 0.436667 0.00148016 4 1 0
0.00383699 0.436453 0.0014833 4 1 0
0.00383784 0.436232 0.00148652 4 1 0
0.00383868 0.436011 0.00148976 4 1 0
0.00383952 0.43578 0.00149297 4 1 0
0.00384036 0.435559 0.00149622 4 1 0
0.00384121 0.435339 0.00149947 4 1 0
0.00384205 0.435121 0.00150273 4 1 0
0.00384289 0.434901 0.001506 4 1 0
0.00384374 0.434681 0.00150927 4 1 0
0.00384458 0.434457 0.00151256 4 1 0
0.00384542 0.434238 0.00151584 4 1 0
0.00384627 0.434018 0.00151914 4 1 0
0.00384711 0.433794 0.00152246 4 1 0
0.00384796 0.433572 0.00152576 4 1 0
0.0038488 0.433351 0.00152907 4 1 0
0.00384965 0.433131 0.00153239 4 1 0
0.00385049 0.432912 0.00153571 4 1 0
0.00385134 0.432693 0.00153904 4 1 0
0.00385218 0.432471 0.00154238 4 1 0
0.00385303 0.432252 0.00154573 4 1 0
0.00385387 0.432033 0.00154907 4 1 0
0.00385472 0.43181 0.00155244 4 1 0
0.00385556 0.431591 0.0015558 4 1 0
0.00385641 0.431373 0.00155916 4 1 0
0.00385726 0.43115 0.00156254 4 1 0
0.0038581 0.430932 0.00156592 4 1 0
0.00385895 0.430713 0.0015693 4 1 0
0.0038598 0.430492 0.0015727 4 1 0
0.00386064 0.430272 0.0015761 4 1 0
0.00386149 0.430054 0.0015795 4 1 0
0.00386234 0.429835 0.00158289 4 1 0
0.00386318 0.429614 0.00158631 4 1 0
0.00386403 0.429396 0.00158973 4 1 0
0.00386488 0.429178 0.00159319 4 1 0
0.00386573 0.42896 0.00159663 4 1 0
0.00386658 0.428742 0.00160007 4 1 0
0.00386742 0.428523 0.00160353 4 1 0
0.00386827 0.428305 0.00160698 4 1 0
0.00386912 0.428087 0.00161044 4 1 0
0.00386997 0.427868 0.00161394 4 1 0
0.00387082 0.42765 0.00161742 4 1 0
0.00387167 0.427432 0.0016209 4 1 0
0.00387251 0.427214 0.0016244 4 1 0
0.00387336 0.426996 0.0016279 4 1 0
0.00387421 0.426779 0.0016314 4 1 0
0.00387506 0.42656 0.00163492 4 1 0
0.00387591 0.426343 0.00163844 4 1 0
0.00387676 0.426125 0.00164195 4 1 0
0.00387761 0.425907 0.0016455 4 1 0
0.00387846 0.42569 0.00164903 4 1 0
0.00387931 0.425472 0.00165257 4 1 0
0.00388016 0.425254 0.00165613 4 1 0
0.00388101 0.425037 0.00165969 4 1 0
0.00388186 0.42482 0.00166324 4 1 0
0.00388271 0.424602 0.00166683 4 1 0
0.00388356 0.424385 0.0016704 4 1 0
0.00388441 0.424168 0.00167398 4 1 0
0.00388526 0.423951 0.00167758 4 1 0
0.00388611 0.423734 0.00168117 4 1 0
0.00388697 0.423517 0.00168477 4 1 0
0.00388782 0.4233 0.00168839 4 1 0
0.00388867 0.423083 0.001692 4 1 0
0.00388952 0.422867 0.00169562 4 1 0
0.00389037 0.42265 0.00169926 4 1 0
0.00389122 0.422433 0.00170289 4 1 0
0.00389208 0.422217 0.00170653 4 1 0
0.00389293 0.422 0.00171019 4 1 0
0.00389378 0.421784 0.00171384 4 1 0
0.00389463 0.421568 0.0017175 4 1 0
0.00389548 0.421351 0.00172118 4 1 0
0.00389634 0.421135 0.00172485 4 1 0
0.00389719 0.420919 0.00172853 4 1 0
0.00389804 0.420703 0.00173223 4 1 0
0.0038989 0.420487 0.00173592 4 1 0
0.00389975 0.420271 0.00173962 4 1 0
0.0039006 0.420055 0.00174336 4 1 0
0.00390145 0.419839 0.00174707 4 1 0
0.00390231 0.419623 0.00175079 4 1 0
0.00390316 0.419407 0.00175453 4 1 0
0.00390401 0.419192 0.00175826 4 1 0
0.00390487 0.418977 0.001762 4 1 0
0.00390572 0.418761 0.00176576 4 1 0
0.00390658 0.418546 0.00176951 4 1 0
0.00390743 0.41833 0.00177327 4 1 0
0.00390828 0.418115 0.00177705 4 1 0
0.00390914 0.4179 0.00178082 4 1 0
0.00390999 0.417685 0.0017846 4 1 0
0.00391085 0.41747 0.0017884 4 1 0
0.0039117 0.417255 0.0017922 4 1 0
0.00391256 0.41704 0.001796 4 1 0
0.00391341 0.416825 0.00179981 4 1 0
0.00391427 0.416611 0.00180363 4 1 0
0.00391512 0.416396 0.00180745 4 1 0
0.00391598 0.416181 0.00181129 4 1 0
0.00391683 0.415967 0.00181512 4 1 0
0.00391769 0.415753 0.00181897 4 1 0
0.00391854 0.415538 0.00182282 4 1 0
0.0039194 0.415324 0.00182668 4 1 0
0.00392025 0.41511 0.00183054 4 1 0
0.00392111 0.414896 0.00183441 4 1 0
0.00392196 0.414682 0.00183829 4 1 0
0.00392282 0.414468 0.00184217 4 1 0
0.00392368 0.414254 0.00184604 4 1 0
0.00392453 0.41404 0.00184994 4 1 0
0.00392539 0.413827 0.00185385 4 1 0
0.00392624 0.413613 0.00185779 4 1 0
0.0039271 0.4134 0.00186172 4 1 0
0.00392796 0.413186 0.00186564 4 1 0
0.00392881 0.412973 0.00186963 4 1 0
0.00392967 0.41276 0.00187357 4 1 0
0.00393053 0.412547 0.00187752 4 1 0
0.00393138 0.412333 0.00188152 4 1 0
0.00393224 0.41212 0.00188549 4 1 0
0.0039331 0.411907 0.00188946 4 1 0
0.00393395 0.411694 0.00189344 4 1 0
0.00393481 0.411481 0.00189742 4 1 0
0.00393567 0.411268 0.00190142 4 1 0
0.00393653 0.411056 0.00190545 4 1 0
0.00393738 0.410843 0.00190946 4 1 0
0.00393824 0.41063 0.00191347 4 1 0
0.0039391 0.410417 0.00191752 4 1 0
0.00393996 0.410204 0.00192155 4 1 0
0.00394081 0.409991 0.00192558 4 1 0
0.00394167 0.409778 0.00192966 4 1 0
0.00394253 0.409565 0.00193371 4 1 0
0.00394339 0.409352 0.00193776 4 1 0
0.00394425 0.409135 0.00194186 4 1 0
0.0039451 0.408922 0.00194595 4 1 0
0.00394596 0.408711 0.00195004 4 1 0
0.00394682 0.408505 0.00195412 4 1 0
0.00394768 0.408293 0.00195821 4 1 0
0.00394854 0.40808 0.00196231 4 1 0
0.0039494 0.407873 0.00196642 4 1 0
0.00395025 0.407661 0.00197054 4 1 0
0.00395111 0.407449 0.00197466 4 1 0
0.00395197 0.407237 0.00197879 4 1 0
0.00395283 0.407025 0.00198293 4 1 0
0.00395369 0.406813 0.00198707 4 1 0
0.00395455 0.406606 0.00199123 4 1 0
0.00395541 0.406395 0.00199538 4 1 0
0.00395627 0.406183 0.00199955 4 1 0
0.00395713 0.405971 0.0020037 4 1 0
0.00395799 0.405759 0.00200788 4 1 0
0.00395884 0.405548 0.00201207 4 1 0
0.0039597 0.40534 0.00201625 4 1 0
0.00396056 0.405128 0.00202045 4 1 0
0.00396142 0.404917 0.00202467 4 1 0
0.00396228 0.404707 0.00202887 4 1 0
0.00396314 0.404496 0.0020331 4 1 0
0.003964 0.404285 0.00203733 4 1 0
0.00396486 0.404076 0.00204156 4 1 0
0.00396572 0.403866 0.00204581 4 1 0
0.00396658 0.403655 0.00205007 4 1 0
0.00396744 0.403445 0.00205433 4 1 0
0.0039683 0.403235 0.0020586 4 1 0
0.00396916 0.403024 0.00206288 4 1 0
0.00397002 0.402816 0.00206716 4 1 0
0.00397088 0.402606 0.00207146 4 1 0
0.00397174 0.402395 0.00207577 4 1 0
0.0039726 0.40219 0.00208009 4 1 0
0.00397346 0.40198 0.00208441 4 1 0
0.00397432 0.40177 0.00208874 4 1 0
0.00397518 0.40156 0.00209307 4 1 0
0.00397605 0.40135 0.00209742 4 1 0
0.00397691 0.40114 0.00210177 4 1 0
0.00397777 0.400932 0.00210613 4 1 0
0.00397863 0.400722 0.0021105 4 1 0
0.00397949 0.400512 0.00211487 4 1 0
0.00398035 0.400302 0.0021193 4 1 0
0.00398121 0.400095 0.00212369 4 1 0
0.00398207 0.399887 0.00212808 4 1 0
0.00398293 0.399679 0.00213249 4 1 0
0.00398379 0.39947 0.0021369 4 1 0
0.00398465 0.39926 0.00214132 4 1 0
0.00398552 0.39905 0.00214578 4 1 0
0.00398638 0.398843 0.00215022 4 1 0
0.00398724 0.398636 0.00215466 4 1 0
0.0039881 0.398431 0.00215912 4 1 0
0.00398896 0.398222 0.00216358 4 1 0
0.00398982 0.398013 0.00216804 4 1 0
0.00399068 0.397806 0.00217254 4 1 0
0.00399155 0.397598 0.00217702 4 1 0
0.00399241 0.397389 0.00218151 4 1 0
0.00399327 0.397185 0.00218602 4 1 0
0.00399413 0.396976 0.00219053 4 1 0
0.00399499 0.396768 0.00219504 4 1 0
0.00399585 0.396561 0.00219957 4 1 0
0.00399672 0.396353 0.0022041 4 1 0
0.00399758 0.396145 0.00220863 4 1 0
0.00399844 0.395941 0.00221319 4 1 0
0.0039993 0.395733 0.00221774 4 1 0
0.00400016 0.395525 0.0022223 4 1 0
0.00400103 0.39532 0.00222687 4 1 0
0.00400189 0.395113 0.00223145 4 1 0
0.00400275 0.394905 0.00223603 4 1 0
0.00400361 0.394701 0.00224061 4 1 0
0.00400447 0.394493 0.00224521 4 1 0
0.00400534 0.394286 0.00224982 4 1 0
0.0040062 0.39408 0.00225447 4 1 0
0.00400706 0.393873 0.00225909 4 1 0
0.00400792 0.393666 0.00226372 4 1 0
0.00400879 0.393461 0.00226841 4 1 0
0.00400965 0.393254 0.00227306 4 1 0
0.00401051 0.393047 0.00227771 4 1 0
0.00401137 0.392842 0.00228241 4 1 0
0.00401224 0.392636 0.00228708 4 1 0
0.0040131 0.392429 0.00229176 4 1 0
0.00401396 0.392225 0.00229649 4 1 0
0.00401482 0.392018 0.00230118 4 1 0
0.00401569 0.391812 0.00230588 4 1 0
0.00401655 0.391608 0.00231063 4 1 0
0.00401741 0.391401 0.00231535 4 1 0
0.00401828 0.391195 0.00232008 4 1 0
0.00401914 0.390992 0.00232485 4 1 0
0.00402 0.390785 0.00232959 4 1 0
0.00402086 0.390579 0.00233434 4 1 0
0.00402173 0.390376 0.00233914 4 1 0
0.00402259 0.39017 0.00234391 4 1 0
0.00402345 0.389964 0.00234868 4 1 0
0.00402432 0.389761 0.0023535 4 1 0
0.00402518 0.389555 0.0023583 4 1 0
0.00402604 0.38935 0.0023631 4 1 0
0.00402691 0.389147 0.00236794 4 1 0
0.00402777 0.388941 0.00237276 4 1 0
0.00402863 0.388737 0.00237758 4 1 0
0.00402949 0.388533 0.00238246 4 1 0
0.00403036 0.388328 0.0023873 4 1 0
0.00403122 0.388125 0.00239215 4 1 0
0.00403208 0.38792 0.00239701 4 1 0
0.00403295 0.387717 0.00240189 4 1 0
0.00403381 0.387514 0.00240678 4 1 0
0.00403467 0.387309 0.00241164 4 1 0
0.00403554 0.387104 0.00241655 4 1 0
0.0040364 0.386901 0.00242146 4 1 0
0.00403726 0.386699 0.00242636 4 1 0
0.00403813 0.386494 0.00243129 4 1 0
0.00403899 0.38629 0.00243623 4 1 0
0.00403985 0.386088 0.00244116 4 1 0
0.00404072 0.385884 0.00244611 4 1 0
0.00404158 0.38568 0.00245108 4 1 0
0.00404245 0.385478 0.00245606 4 1 0
0.00404331 0.385276 0.00246104 4 1 0
0.00404417 0.385074 0.00246601 4 1 0
0.00404504 0.38487 0.00247101 4 1 0
0.0040459 0.384668 0.00247601 4 1 0
0.00404676 0.384467 0.00248101 4 1 0
0.00404763 0.384263 0.00248603 4 1 0
0.00404849 0.384061 0.00249106 4 1 0
0.00404935 0.383859 0.00249609 4 1 0
0.00405022 0.383655 0.00250112 4 1 0
0.00405108 0.383454 0.00250618 4 1 0
0.00405194 0.383252 0.00251124 4 1 0
0.00405281 0.383048 0.0025163 4 1 0
0.00405367 0.382847 0.00252138 4 1 0
0.00405454 0.382646 0.00252647 4 1 0
0.0040554 0.382441 0.00253154 4 1 0
0.00405626 0.38224 0.00253665 4 1 0
0.00405713 0.382039 0.00254177 4 1 0
0.00405799 0.381837 0.0025469 4 1 0
0.00405885 0.381636 0.00255203 4 1 0
0.00405972 0.381435 0.00255715 4 1 0
0.00406058 0.381233 0.0025623 4 1 0
0.00406145 0.381032 0.00256745 4 1 0
0.00406231 0.380832 0.0025726 4 1 0
0.00406317 0.380631 0.00257776 4 1 0
0.00406404 0.38043 0.00258294 4 1 0
0.0040649 0.38023 0.00258812 4 1 0
0.00406576 0.380029 0.00259331 4 1 0
0.00406663 0.379828 0.00259851 4 1 0
0.00406749 0.379628 0.00260372 4 1 0
0.00406836 0.379427 0.00260893 4 1 0
0.00406922 0.379227 0.00261416 4 1 0
0.00407008 0.379027 0.00261939 4 1 0
0.00407095 0.378827 0.00262462 4 1 0
0.00407181 0.378626 0.00262987 4 1 0
0.00407267 0.378426 0.00263513 4 1 0
0.00407354 0.378225 0.00264041 4 1 0
0.0040744 0.378025 0.00264569 4 1 0
0.00407527 0.377825 0.00265098 4 1 0
0.00407613 0.377625 0.00265632 4 1 0
0.00407699 0.377425 0.00266163 4 1 0
0.00407786 0.377225 0.00266694 4 1 0
0.00407872 0.377024 0.00267231 4 1 0
0.00407958 0.376824 0.00267764 4 1 0
0.00408045 0.376624 0.00268298 4 1 0
0.00408131 0.37642 0.0026884 4 1 0
0.00408218 0.376219 0.00269376 4 1 0
0.00408304 0.376019 0.00269912 4 1 0
0.0040839 0.375822 0.0027045 4 1 0
0.00408477 0.375622 0.00270988 4 1 0
0.00408563 0.375422 0.00271527 4 1 0
0.00408649 0.375226 0.00272067 4 1 0
0.00408736 0.375026 0.00272609 4 1 0
0.00408822 0.374826 0.00273151 4 1 0
0.00408909 0.37463 0.00273693 4 1 0
0.00408995 0.374431 0.00274237 4 1 0
0.00409081 0.374231 0.00274782 4 1 0
0.00409168 0.374035 0.00275327 4 1 0
0.00409254 0.373836 0.00275874 4 1 0
0.0040934 0.373636 0.00276422 4 1 0
0.00409427 0.373439 0.00276969 4 1 0
0.00409513 0.373241 0.00277519 4 1 0
0.00409599 0.373042 0.00278069 4 1 0
0.00409686 0.372845 0.0027862 4 1 0
0.00409772 0.372646 0.00279172 4 1 0
0.00409858 0.372448 0.00279725 4 1 0
0.00409945 0.37225 0.00280277 4 1 0
0.00410031 0.372052 0.00280832 4 1 0
0.00410118 0.371854 0.00281388 4 1 0
0.00410204 0.371653 0.0028194 4 1 0
0.0041029 0.371456 0.00282498 4 1 0
0.00410377 0.371259 0.00283057 4 1 0
0.00410463 0.371064 0.00283622 4 1 0
0.00410549 0.370866 0.00284182 4 1 0
0.00410636 0.370669 0.00284744 4 1 0
0.00410722 0.370471 0.00285311 4 1 0
0.00410808 0.370274 0.00285874 4 1 0
0.00410895 0.370077 0.00286438 4 1 0
0.00410981 0.369879 0.00287008 4 1 0
0.00411067 0.369682 0.00287574 4 1 0
0.00411154 0.369486 0.00288141 4 1 0
0.0041124 0.369288 0.00288713 4 1 0
0.00411326 0.369092 0.00289282 4 1 0
0.00411413 0.368895 0.00289851 4 1 0
0.00411499 0.368697 0.00290425 4 1 0
0.00411585 0.368501 0.00290997 4 1 0
0.00411671 0.368305 0.0029157 4 1 0
0.00411758 0.368108 0.00292141 4 1 0
0.00411844 0.367912 0.00292715 4 1 0
0.0041193 0.367716 0.00293291 4 1 0
0.00412017 0.367519 0.00293866 4 1 0
0.00412103 0.367323 0.00294443 4 1 0
0.00412189 0.367127 0.00295022 4 1 0
0.00412276 0.366931 0.00295611 4 1 0
0.00412362 0.366735 0.00296191 4 1 0
0.00412448 0.36654 0.00296772 4 1 0
0.00412534 0.366344 0.0029735 4 1 0
0.00412621 0.366148 0.00297933 4 1 0
0.00412707 0.365952 0.00298517 4 1 0
0.00412793 0.365757 0.00299101 4 1 0
0.0041288 0.365561 0.00299687 4 1 0
0.00412966 0.365366 0.00300274 4 1 0
0.00413052 0.36517 0.00300861 4 1 0
0.00413138 0.364975 0.0030145 4 1 0
0.00413225 0.36478 0.0030204 4 1 0
0.00413311 0.364584 0.00302645 4 1 0
0.00413397 0.364389 0.00303237 4 1 0
0.00413483 0.364194 0.00303829 4 1 0
0.0041357 0.364 0.00304417 4 1 0
0.00413656 0.363804 0.00305011 4 1 0
0.00413742 0.363609 0.00305607 4 1 0
0.00413828 0.363416 0.00306213 4 1 0
0.00413915 0.363222 0.0030681 4 1 0
0.00414001 0.363028 0.00307408 4 1 0
0.00414087 0.362833 0.00308012 4 1 0
0.00414173 0.362639 0.00308612 4 1 0
0.00414259 0.362444 0.00309213 4 1 0
0.00414346 0.36225 0.00309818 4 1 0
0.00414432 0.362056 0.00310421 4 1 0
0.00414518 0.361862 0.00311025 4 1 0
0.00414604 0.361668 0.00311627 4 1 0
0.0041469 0.361474 0.00312233 4 1 0
0.00414777 0.36128 0.0031284 4 1 0
0.00414863 0.361087 0.00313447 4 1 0
0.00414949 0.360893 0.00314056 4 1 0
0.00415035 0.360699 0.00314666 4 1 0
0.00415121 0.360506 0.0031528 4 1 0
0.00415207 0.360313 0.00315892 4 1 0
0.00415294 0.360119 0.00316505 4 1 0
0.0041538 0.359926 0.00317133 4 1 0
0.00415466 0.359733 0.00317748 4 1 0
0.00415552 0.35954 0.00318364 4 1 0
0.00415638 0.359347 0.00318981 4 1 0
0.00415724 0.359153 0.00319599 4 1 0
0.00415811 0.35896 0.00320217 4 1 0
0.00415897 0.358768 0.00320844 4 1 0
0.00415983 0.358575 0.00321466 4 1 0
0.00416069 0.358382 0.0032209 4 1 0
0.00416155 0.358188 0.00322703 4 1 0
0.00416241 0.357994 0.00323326 4 1 0
0.00416327 0.357801 0.00323951 4 1 0
0.00416413 0.35761 0.00324579 4 1 0
0.00416499 0.357417 0.00325206 4 1 0
0.00416586 0.357224 0.00325833 4 1 0
0.00416672 0.357034 0.00326462 4 1 0
0.00416758 0.356842 0.00327092 4 1 0
0.00416844 0.356649 0.00327723 4 1 0
0.0041693 0.356458 0.00328354 4 1 0
0.00417016 0.356266 0.00328987 4 1 0
0.00417102 0.356073 0.00329621 4 1 0
0.00417188 0.35588 0.00330265 4 1 0
0.00417274 0.355688 0.00330901 4 1 0
0.0041736 0.355496 0.00331538 4 1 0
0.00417446 0.355306 0.0033218 4 1 0
0.00417532 0.355113 0.00332819 4 1 0
0.00417618 0.354921 0.00333459 4 1 0
0.00417704 0.354732 0.00334101 4 1 0
0.0041779 0.35454 0.00334743 4 1 0
0.00417876 0.354348 0.00335386 4 1 0
0.00417962 0.354157 0.00336027 4 1 0
0.00418048 0.353966 0.00336672 4 1 0
0.00418134 0.353774 0.00337318 4 1 0
0.0041822 0.353584 0.00337977 4 1 0
0.00418306 0.353392 0.00338625 4 1 0
0.00418392 0.353201 0.00339274 4 1 0
0.00418478 0.353012 0.00339929 4 1 0
0.00418564 0.352821 0.0034058 4 1 0
0.0041865 0.35263 0.00341232 4 1 0
0.00418736 0.352441 0.00341886 4 1 0
0.00418822 0.35225 0.00342542 4 1 0
0.00418908 0.352059 0.003432 4 1 0
0.00418994 0.351871 0.0034384 4 1 0
0.0041908 0.351681 0.00344499 4 1 0
0.00419166 0.35149 0.00345159 4 1 0
0.00419251 0.351301 0.00345812 4 1 0
0.00419337 0.35111 0.00346474 4 1 0
0.00419423 0.35092 0.00347136 4 1 0
0.00419509 0.350734 0.00347794 4 1 0
0.00419595 0.350544 0.00348458 4 1 0
0.00419681 0.350354 0.00349124 4 1 0
0.00419767 0.350166 0.00349792 4 1 0
0.00419853 0.349977 0.0035046 4 1 0
0.00419938 0.349788 0.00351129 4 1 0
0.00420024 0.3496 0.00351796 4 1 0
0.0042011 0.349411 0.00352467 4 1 0
0.00420196 0.349223 0.00353139 4 1 0
0.00420282 0.349034 0.0035381 4 1 0
0.00420368 0.348845 0.00354484 4 1 0
0.00420453 0.348657 0.00355159 4 1 0
0.00420539 0.348468 0.00355835 4 1 0
0.00420625 0.348279 0.00356512 4 1 0
0.00420711 0.348091 0.0035719 4 1 0
0.00420797 0.347902 0.00357871 4 1 0
0.00420882 0.347714 0.00358551 4 1 0
0.00420968 0.347525 0.00359232 4 1 0
0.00421054 0.347332 0.00359917 4 1 0
0.0042114 0.347144 0.003606 4 1 0
0.00421225 0.346955 0.00361285 4 1 0
0.00421311 0.34677 0.00361967 4 1 0
0.00421397 0.346581 0.00362653 4 1 0
0.00421483 0.346393 0.00363341 4 1 0
0.00421568 0.346208 0.0036403 4 1 0
0.00421654 0.34602 0.0036472 4 1 0
0.0042174 0.345832 0.0036541 4 1 0
0.00421825 0.345645 0.00366103 4 1 0
0.00421911 0.345457 0.00366796 4 1 0
0.00421997 0.345269 0.0036749 4 1 0
0.00422082 0.345082 0.00368186 4 1 0
0.00422168 0.344895 0.00368882 4 1 0
0.00422254 0.344707 0.00369579 4 1 0
0.00422339 0.344521 0.00370277 4 1 0
0.00422425 0.344333 0.00370977 4 1 0
0.00422511 0.344146 0.00371677 4 1 0
0.00422596 0.343959 0.00372379 4 1 0
0.00422682 0.343772 0.00373081 4 1 0
0.00422767 0.343585 0.00373785 4 1 0
0.00422853 0.343399 0.00374491 4 1 0
0.00422939 0.343212 0.00375198 4 1 0
0.00423024 0.343025 0.00375905 4 1 0
0.0042311 0.342839 0.00376612 4 1 0
0.00423195 0.342652 0.00377321 4 1 0
0.00423281 0.342465 0.00378031 4 1 0
0.00423366 0.342279 0.00378745 4 1 0
0.00423452 0.342092 0.00379457 4 1 0
0.00423537 0.341906 0.00380171 4 1 0
0.00423623 0.34172 0.00380889 4 1 0
0.00423708 0.341533 0.00381605 4 1 0
0.00423794 0.341347 0.00382321 4 1 0
0.00423879 0.341161 0.00383045 4 1 0
0.00423965 0.340975 0.00383763 4 1 0
0.0042405 0.340788 0.00384483 4 1 0
0.00424136 0.340603 0.00385211 4 1 0
0.00424221 0.340417 0.00385933 4 1 0
0.00424307 0.340231 0.00386656 4 1 0
0.00424392 0.340045 0.00387388 4 1 0
0.00424477 0.339859 0.00388113 4 1 0
0.00424563 0.339673 0.00388839 4 1 0
0.00424648 0.339488 0.00389575 4 1 0
0.00424734 0.339302 0.00390304 4 1 0
0.00424819 0.339117 0.00391033 4 1 0
0.00424904 0.338932 0.00391773 4 1 0
0.0042499 0.338747 0.00392504 4 1 0
0.00425075 0.338563 0.00393237 4 1 0
0.0042516 0.338377 0.00393969 4 1 0
0.00425246 0.338194 0.00394706 4 1 0
0.00425331 0.33801 0.00395444 4 1 0
0.00425416 0.337825 0.00396174 4 1 0
0.00425502 0.337641 0.00396915 4 1 0
0.00425587 0.337458 0.00397656 4 1 0
0.00425672 0.337274 0.0039839 4 1 0
0.00425757 0.33709 0.00399133 4 1 0
0.00425843 0.336907 0.00399878 4 1 0
0.00425928 0.33672 0.00400618 4 1 0
0.00426013 0.336537 0.00401365 4 1 0
0.00426098 0.336353 0.00402113 4 1 0
0.00426184 0.336167 0.00402856 4 1 0
0.00426269 0.335984 0.00403606 4 1 0
0.00426354 0.335801 0.00404358 4 1 0
0.00426439 0.335618 0.00405107 4 1 0
0.00426524 0.335435 0.00405861 4 1 0
0.0042661 0.335252 0.00406615 4 1 0
0.00426695 0.335067 0.00407367 4 1 0
0.0042678 0.334885 0.00408124 4 1 0
0.00426865 0.334702 0.00408882 4 1 0
0.0042695 0.334519 0.00409639 4 1 0
0.00427035 0.334336 0.00410399 4 1 0
0.0042712 0.334153 0.00411161 4 1 0
0.00427205 0.33397 0.0041192 4 1 0
0.0042729 0.333788 0.00412684 4 1 0
0.00427376 0.333605 0.00413449 4 1 0
0.00427461 0.333422 0.00414213 4 1 0
0.00427546 0.33324 0.0041498 4 1 0
0.00427631 0.333058 0.00415748 4 1 0
0.00427716 0.332875 0.00416516 4 1 0
0.00427801 0.332693 0.00417286 4 1 0
0.00427886 0.332511 0.00418058 4 1 0
0.00427971 0.332328 0.00418829 4 1 0
0.00428056 0.332146 0.00419603 4 1 0
0.00428141 0.331964 0.00420378 4 1 0
0.00428226 0.331782 0.00421154 4 1 0
0.0042831 0.3316 0.00421931 4 1 0
0.00428395 0.331418 0.00422709 4 1 0
0.0042848 0.331236 0.00423489 4 1 0
0.00428565 0.331054 0.0042427 4 1 0
0.0042865 0.330873 0.00425052 4 1 0
0.00428735 0.330691 0.00425835 4 1 0
0.0042882 0.330509 0.00426619 4 1 0
0.00428905 0.330328 0.00427404 4 1 0
0.0042899 0.330147 0.00428191 4 1 0
0.00429074 0.329965 0.00428979 4 1 0
0.00429159 0.329784 0.00429768 4 1 0
0.00429244 0.329602 0.00430558 4 1 0
0.00429329 0.329421 0.00431349 4 1 0
0.00429414 0.329239 0.00432142 4 1 0
0.00429498 0.329058 0.00432935 4 1 0
0.00429583 0.328877 0.0043373 4 1 0
0.00429668 0.328695 0.00434526 4 1 0
0.00429753 0.328514 0.00435324 4 1 0
0.00429837 0.328332 0.00436122 4 1 0
0.00429922 0.328151 0.00436922 4 1 0
0.00430007 0.327969 0.00437723 4 1 0
0.00430091 0.327788 0.00438525 4 1 0
0.00430176 0.327607 0.00439328 4 1 0
0.00430261 0.327428 0.00440133 4 1 0
0.00430345 0.327248 0.00440938 4 1 0
0.0043043 0.327069 0.00441745 4 1 0
0.00430515 0.326889 0.00442553 4 1 0
0.00430599 0.326709 0.00443362 4 1 0
0.00430684 0.326529 0.00444173 4 1 0
0.00430769 0.326351 0.00444987 4 1 0
0.00430853 0.326172 0.00445799 4 1 0
0.00430938 0.325992 0.00446613 4 1 0
0.00431022 0.325808 0.00447429 4 1 0
0.00431107 0.325629 0.00448245 4 1 0
0.00431191 0.32545 0.00449062 4 1 0
0.00431276 0.325272 0.00449883 4 1 0
0.0043136 0.325093 0.00450703 4 1 0
0.00431445 0.324914 0.00451524 4 1 0
0.00431529 0.324732 0.00452347 4 1 0
0.00431614 0.324554 0.00453171 4 1 0
0.00431698 0.324375 0.00453995 4 1 0
0.00431783 0.324195 0.00454822 4 1 0
0.00431867 0.324016 0.00455649 4 1 0
0.00431951 0.323838 0.00456478 4 1 0
0.00432036 0.323658 0.00457308 4 1 0
0.0043212 0.32348 0.00458139 4 1 0
0.00432204 0.323302 0.00458971 4 1 0
0.00432289 0.323122 0.00459805 4 1 0
0.00432373 0.322944 0.00460639 4 1 0
0.00432457 0.322766 0.00461475 4 1 0
0.00432542 0.322587 0.00462312 4 1 0
0.00432626 0.322409 0.0046315 4 1 0
0.0043271 0.322231 0.0046399 4 1 0
0.00432795 0.322052 0.0046483 4 1 0
0.00432879 0.321874 0.00465672 4 1 0
0.00432963 0.321696 0.00466515 4 1 0
0.00433047 0.321517 0.00467358 4 1 0
0.00433131 0.321339 0.00468204 4 1 0
0.00433216 0.321162 0.00469051 4 1 0
0.004333 0.320984 0.004699 4 1 0
0.00433384 0.320807 0.00470749 4 1 0
0.00433468 0.320629 0.004716 4 1 0
0.00433552 0.320452 0.00472457 4 1 0
0.00433636 0.320275 0.0047331 4 1 0
0.00433721 0.320098 0.00474164 4 1 0
0.00433805 0.319919 0.00475024 4 1 0
0.00433889 0.319742 0.00475881 4 1 0
0.00433973 0.319565 0.00476738 4 1 0
0.00434057 0.319388 0.00477605 4 1 0
0.00434141 0.319211 0.00478464 4 1 0
0.00434225 0.319034 0.00479326 4 1 0
0.00434309 0.318856 0.00480196 4 1 0
0.00434393 0.31868 0.0048106 4 1 0
0.00434477 0.318504 0.00481924 4 1 0
0.00434561 0.318326 0.00482799 4 1 0
0.00434645 0.31815 0.00483666 4 1 0
0.00434729 0.317974 0.00484535 4 1 0
0.00434813 0.317797 0.00485414 4 1 0
0.00434896 0.317621 0.00486285 4 1 0
0.0043498 0.317445 0.00487157 4 1 0
0.00435064 0.317268 0.00488039 4 1 0
0.00435148 0.317092 0.00488915 4 1 0
0.00435232 0.316916 0.00489791 4 1 0
0.00435316 0.316739 0.00490665 4 1 0
0.00435399 0.316564 0.00491546 4 1 0
0.00435483 0.316388 0.00492428 4 1 0
0.00435567 0.316212 0.00493303 4 1 0
0.00435651 0.316036 0.00494188 4 1 0
0.00435734 0.315861 0.00495074 4 1 0
0.00435818 0.315685 0.00495953 4 1 0
0.00435902 0.31551 0.00496842 4 1 0
0.00435986 0.315334 0.00497731 4 1 0
0.00436069 0.315158 0.00498615 4 1 0
0.00436153 0.314983 0.00499507 4 1 0
0.00436237 0.314808 0.00500401 4 1 0
0.0043632 0.314633 0.00501288 4 1 0
0.00436404 0.314458 0.00502184 4 1 0
0.00436487 0.314283 0.00503082 4 1 0
0.00436571 0.314107 0.00503974 4 1 0
0.00436655 0.313933 0.00504873 4 1 0
0.00436738 0.313758 0.00505774 4 1 0
0.00436822 0.313583 0.00506671 4 1 0
0.00436905 0.313408 0.00507574 4 1 0
0.00436989 0.313234 0.00508479 4 1 0
0.00437072 0.31306 0.00509382 4 1 0
0.00437156 0.312885 0.00510289 4 1 0
0.00437239 0.312711 0.00511198 4 1 0
0.00437323 0.312536 0.00512106 4 1 0
0.00437406 0.312362 0.00513017 4 1 0
0.00437489 0.312188 0.00513929 4 1 0
0.00437573 0.312013 0.00514841 4 1 0
0.00437656 0.311839 0.00515756 4 1 0
0.00437739 0.311665 0.00516672 4 1 0
0.00437823 0.311491 0.00517589 4 1 0
0.00437906 0.311317 0.00518508 4 1 0
0.00437989 0.311143 0.00519428 4 1 0
0.00438073 0.31097 0.00520349 4 1 0
0.00438156 0.310796 0.00521272 4 1 0
0.00438239 0.310622 0.00522196 4 1 0
0.00438322 0.310449 0.0052312 4 1 0
0.00438406 0.310275 0.00524046 4 1 0
0.00438489 0.310101 0.00524975 4 1 0
0.00438572 0.309928 0.00525901 4 1 0
0.00438655 0.309755 0.00526832 4 1 0
0.00438738 0.309581 0.00527764 4 1 0
0.00438821 0.309408 0.00528696 4 1 0
0.00438904 0.309235 0.0052963 4 1 0
0.00438988 0.309061 0.00530566 4 1 0
0.00439071 0.308888 0.00531502 4 1 0
0.00439154 0.308715 0.00532441 4 1 0
0.00439237 0.308541 0.0053338 4 1 0
0.0043932 0.308369 0.00534321 4 1 0
0.00439403 0.308196 0.00535263 4 1 0
0.00439486 0.308023 0.00536207 4 1 0
0.00439569 0.307851 0.00537152 4 1 0
0.00439652 0.307678 0.00538098 4 1 0
0.00439735 0.307505 0.00539046 4 1 0
0.00439818 0.307334 0.00539995 4 1 0
0.004399 0.307161 0.00540946 4 1 0
0.00439983 0.306988 0.00541897 4 1 0
0.00440066 0.306816 0.00542851 4 1 0
0.00440149 0.306644 0.00543805 4 1 0
0.00440232 0.306471 0.0054476 4 1 0
0.00440315 0.306299 0.00545718 4 1 0
0.00440397 0.306127 0.00546677 4 1 0
0.0044048 0.305955 0.00547636 4 1 0
0.00440563 0.305784 0.00548599 4 1 0
0.00440646 0.305613 0.00549561 4 1 0
0.00440728 0.305442 0.00550524 4 1 0
0.00440811 0.305272 0.00551492 4 1 0
0.00440894 0.305101 0.00552458 4 1 0
0.00440976 0.30493 0.00553425 4 1 0
0.00441059 0.304757 0.00554395 4 1 0
0.00441142 0.304586 0.00555366 4 1 0
0.00441224 0.304416 0.00556337 4 1 0
0.00441307 0.304243 0.00557311 4 1 0
0.00441389 0.304073 0.00558285 4 1 0
0.00441472 0.303903 0.00559261 4 1 0
0.00441554 0.30373 0.00560238 4 1 0
0.00441637 0.30356 0.00561217 4 1 0
0.00441719 0.30339 0.00562197 4 1 0
0.00441802 0.303217 0.00563178 4 1 0
0.00441884 0.303047 0.0056416 4 1 0
0.00441967 0.302878 0.00565145 4 1 0
0.00442049 0.302706 0.0056613 4 1 0
0.00442131 0.302535 0.00567117 4 1 0
0.00442214 0.302366 0.00568105 4 1 0
0.00442296 0.302197 0.00569099 4 1 0
0.00442379 0.302026 0.0057009 4 1 0
0.00442461 0.301856 0.00571083 4 1 0
0.00442543 0.301686 0.00572073 4 1 0
0.00442625 0.301516 0.00573068 4 1 0
0.00442708 0.301347 0.00574065 4 1 0
0.0044279 0.301176 0.00575066 4 1 0
0.00442872 0.301007 0.00576065 4 1 0
0.00442954 0.300838 0.00577066 4 1 0
0.00443036 0.300668 0.00578073 4 1 0
0.00443119 0.300499 0.00579076 4 1 0
0.00443201 0.30033 0.0058008 4 1 0
0.00443283 0.30016 0.00581093 4 1 0
0.00443365 0.299991 0.005821 4 1 0
0.00443447 0.299823 0.00583108 4 1 0
0.00443529 0.299653 0.00584126 4 1 0
0.00443611 0.299484 0.00585137 4 1 0
0.00443693 0.299316 0.0058615 4 1 0
0.00443775 0.299147 0.00587173 4 1 0
0.00443857 0.298978 0.00588188 4 1 0
0.00443939 0.29881 0.00589204 4 1 0
0.00444021 0.298641 0.00590232 4 1 0
0.00444103 0.298473 0.00591251 4 1 0
0.00444185 0.298305 0.00592272 4 1 0
0.00444267 0.298136 0.00593306 4 1 0
0.00444348 0.297968 0.00594329 4 1 0
0.0044443 0.2978 0.00595354 4 1 0
0.00444512 0.297631 0.00596376 4 1 0
0.00444594 0.297463 0.00597406 4 1 0
0.00444676 0.297295 0.00598438 4 1 0
0.00444757 0.297127 0.0059946 4 1 0
0.00444839 0.296959 0.00600494 4 1 0
0.00444921 0.296792 0.0060153 4 1 0
0.00445002 0.296624 0.00602557 4 1 0
0.00445084 0.296456 0.00603595 4 1 0
0.00445166 0.296288 0.00604635 4 1 0
0.00445247 0.29612 0.0060567 4 1 0
0.00445329 0.295953 0.00606713 4 1 0
0.0044541 0.295785 0.00607757 4 1 0
0.00445492 0.295618 0.006088 4 1 0
0.00445574 0.295451 0.00609847 4 1 0
0.00445655 0.295283 0.00610895 4 1 0
0.00445737 0.295116 0.0061194 4 1 0
0.00445818 0.294949 0.00612991 4 1 0
0.00445899 0.294781 0.00614043 4 1 0
0.00445981 0.294614 0.00615093 4 1 0
0.00446062 0.294447 0.00616149 4 1 0
0.00446144 0.29428 0.00617206 4 1 0
0.00446225 0.294114 0.0061826 4 1 0
0.00446306 0.293947 0.0061932 4 1 0
0.00446388 0.29378 0.00620381 4 1 0
0.00446469 0.293613 0.0062144 4 1 0
0.0044655 0.293447 0.00622504 4 1 0
0.00446631 0.29328 0.00623569 4 1 0
0.00446713 0.293114 0.00624633 4 1 0
0.00446794 0.292947 0.00625701 4 1 0
0.00446875 0.292781 0.00626771 4 1 0
0.00446956 0.292614 0.00627839 4 1 0
0.00447037 0.292448 0.00628911 4 1 0
0.00447118 0.292282 0.00629985 4 1 0
0.00447199 0.292116 0.00631058 4 1 0
0.00447281 0.29195 0.00632135 4 1 0
0.00447362 0.291783 0.00633213 4 1 0
0.00447443 0.291618 0.0063429 4 1 0
0.00447524 0.291452 0.00635371 4 1 0
0.00447605 0.291286 0.00636454 4 1 0
0.00447685 0.29112 0.00637536 4 1 0
0.00447766 0.290954 0.00638621 4 1 0
0.00447847 0.290788 0.00639708 4 1 0
0.00447928 0.290623 0.00640794 4 1 0
0.00448009 0.290457 0.00641884 4 1 0
0.0044809 0.290292 0.00642975 4 1 0
0.00448171 0.290127 0.00644067 4 1 0
0.00448251 0.289962 0.00645161 4 1 0
0.00448332 0.289796 0.00646257 4 1 0
0.00448413 0.289632 0.00647353 4 1 0
0.00448494 0.289466 0.00648451 4 1 0
0.00448574 0.289301 0.00649551 4 1 0
0.00448655 0.289137 0.00650652 4 1 0
0.00448736 0.288971 0.00651755 4 1 0
0.00448816 0.288806 0.00652859 4 1 0
0.00448897 0.288642 0.00653964 4 1 0
0.00448978 0.288477 0.00655072 4 1 0
0.00449058 0.288312 0.00656181 4 1 0
0.00449139 0.288148 0.0065729 4 1 0
0.00449219 0.287983 0.00658402 4 1 0
0.0042 0.398468 0.00214173 4 1 0
0.00417215 0.393354 0.00219558 3 1 0
0.00419874 0.387964 0.00231735 3 1 0
0.00420081 0.387581 0.00232655 3 1 0
0.00420476 0.386782 0.00234524 3 1 0
0.00421266 0.385196 0.00238304 3 1 0
0.00422223 0.383269 0.00242979 3 1 0
0.00423182 0.381352 0.00247726 3 1 0
0.00424143 0.37944 0.00252547 3 1 0
0.00425104 0.377526 0.00257447 3 1 0
0.00426065 0.375622 0.00262452 3 1 0
0.00427028 0.373717 0.00267548 3 1 0
0.0042799 0.37182 0.00272724 3 1 0
0.00428954 0.369921 0.00278001 3 1 0
0.00429917 0.368034 0.00283372 3 1 0
0.00430881 0.366153 0.00288829 3 1 0
0.00431846 0.364267 0.00294389 3 1 0
0.00432811 0.362397 0.00300048 3 1 0
0.00433776 0.360529 0.00305798 3 1 0
0.00434741 0.358662 0.00311655 3 1 0
0.00435707 0.356796 0.00317615 3 1 0
0.00436672 0.354948 0.00323644 3 1 0
0.00437638 0.353096 0.003298 3 1 0
0.00438604 0.351245 0.00336062 3 1 0
0.0043957 0.349409 0.00342428 3 1 0
0.00440536 0.347571 0.003489 3 1 0
0.00441501 0.345746 0.00355483 3 1 0
0.00442467 0.343922 0.00362177 3 1 0
0.00443433 0.3421 0.00368976 3 1 0
0.00444398 0.34028 0.00375889 3 1 0
0.00445363 0.338476 0.00382917 3 1 0
0.00446328 0.336674 0.00390061 3 1 0
0.00447293 0.334873 0.00397323 3 1 0
0.00448257 0.333082 0.00404707 3 1 0
0.00449221 0.331294 0.00412198 3 1 0
0.00450184 0.329507 0.0041981 3 1 0
0.00451147 0.327735 0.00427556 3 1 0
0.0045211 0.325964 0.00435412 3 1 0
0.00453072 0.324194 0.00443395 3 1 0
0.00454033 0.322437 0.0045151 3 1 0
0.00454994 0.320678 0.00459746 3 1 0
0.00455954 0.31893 0.00468112 3 1 0
0.00456913 0.31719 0.00476628 3 1 0
0.00457872 0.315451 0.00485249 3 1 0
0.00458829 0.313714 0.00494005 3 1 0
0.00459786 0.311993 0.00502906 3 1 0
0.00460743 0.31027 0.00511932 3 1 0
0.00461698 0.30855 0.00521098 3 1 0
0.00462652 0.306847 0.00530405 3 1 0
0.00463606 0.305141 0.00539854 3 1 0
0.00464558 0.303439 0.00549447 3 1 0
0.0046551 0.301751 0.00559174 3 1 0
0.0046646 0.30006 0.00569047 3 1 0
0.00467409 0.298384 0.00579067 3 1 0
0.00468357 0.296707 0.00589235 3 1 0
0.00469304 0.295039 0.00599549 3 1 0
0.0047025 0.293378 0.00610017 3 1 0
0.00471194 0.291715 0.00620643 3 1 0
0.00472138 0.290069 0.00631405 3 1 0
0.00473079 0.288424 0.00642324 3 1 0
0.0047402 0.286779 0.00653407 3 1 0
0.00474959 0.285149 0.00664637 3 1 0
0.00475897 0.283523 0.00676028 3 1 0
0.00476833 0.281897 0.00687587 3 1 0
0.00477768 0.280285 0.00699295 3 1 0
0.00478702 0.278675 0.00711169 3 1 0
0.00479634 0.277072 0.00723241 3 1 0
0.00480564 0.275472 0.00735433 3 1 0
0.00481493 0.273876 0.00747794 3 1 0
0.0048242 0.272291 0.00760328 3 1 0
0.00483346 0.270715 0.00773032 3 1 0
0.0048427 0.269141 0.00785909 3 1 0
0.00485192 0.267573 0.00798974 3 1 0
0.00486112 0.266011 0.0081219 3 1 0
0.00487031 0.264452 0.00825584 3 1 0
0.00487948 0.262904 0.00839178 3 1 0
0.00488863 0.261361 0.0085292 3 1 0
0.00489776 0.259821 0.00866845 3 1 0
0.00490688 0.258291 0.00880996 3 1 0
0.00491598 0.256764 0.00895274 3 1 0
0.00492506 0.25524 0.00909737 3 1 0
0.00493411 0.253731 0.00924427 3 1 0
0.00494315 0.252221 0.00939256 3 1 0
0.00495217 0.250717 0.00954276 3 1 0
0.00496117 0.249221 0.00969517 3 1 0
0.00497016 0.247734 0.00984913 3 1 0
0.00497912 0.246252 0.010005 3 1 0
0.00498806 0.244772 0.0101631 3 1 0
0.00499698 0.243298 0.0103228 3 1 0
0.00500588 0.241836 0.0104846 3 1 0
0.00501476 0.240374 0.0106484 3 1 0
0.00502362 0.238923 0.0108142 3 1 0
0.00503245 0.237475 0.010982 3 1 0
0.00504127 0.236033 0.0111519 3 1 0
0.00505007 0.234598 0.0113235 3 1 0
0.00505884 0.233167 0.0114972 3 1 0
0.00506759 0.231745 0.0116729 3 1 0
0.00507632 0.230327 0.0118509 3 1 0
0.00508503 0.228913 0.0120309 3 1 0
0.00509372 0.22751 0.012213 3 1 0
0.00510239 0.226109 0.0123969 3 1 0
0.00511103 0.224713 0.012583 3 1 0
0.00511966 0.223329 0.0127717 3 1 0
0.00512826 0.221947 0.0129619 3 1 0
0.00513684 0.22057 0.0131543 3 1 0
0.00514539 0.219202 0.0133491 3 1 0
0.00515393 0.217838 0.0135461 3 1 0
0.00516244 0.216479 0.0137453 3 1 0
0.00517094 0.215129 0.013946 3 1 0
0.00517941 0.213781 0.0141495 3 1 0
0.00518786 0.21244 0.0143552 3 1 0
0.00519628 0.211105 0.0145631 3 1 0
0.00520469 0.20978 0.014773 3 1 0
0.00521307 0.208458 0.0149852 3 1 0
0.00522143 0.20714 0.0151999 3 1 0
0.00522978 0.205831 0.0154168 3 1 0
0.0052381 0.204526 0.0156361 3 1 0
0.00524639 0.203227 0.0158569 3 1 0
0.00525467 0.201935 0.0160806 3 1 0
0.00526293 0.200646 0.0163067 3 1 0
0.00527117 0.199366 0.0165353 3 1 0
