0.00501067 0.122567 0.0393309 4 1 0
0.00500983 0.122341 0.0394358 4 1 0
0.00500897 0.122114 0.039541 4 1 0
0.00500809 0.121887 0.0396463 4 1 0
0.0050072 0.121661 0.0397518 4 1 0
0.00500629 0.121436 0.0398576 4 1 0
0.00500536 0.121211 0.0399636 4 1 0
0.00500442 0.120986 0.0400698 4 1 0
0.00500346 0.120761 0.0401762 4 1 0
0.00500248 0.120537 0.0402829 4 1 0
0.00500148 0.120312 0.0403897 4 1 0
0.00500046 0.120088 0.0404965 4 1 0
0.00499942 0.119864 0.0406034 4 1 0
0.00499837 0.119641 0.0407107 4 1 0
0.0049973 0.119417 0.0408182 4 1 0
0.0049962 0.119195 0.0409259 4 1 0
0.00499509 0.118972 0.0410338 4 1 0
0.00499396 0.118749 0.041142 4 1 0
0.00499281 0.118527 0.0412503 4 1 0
0.00499164 0.118305 0.0413589 4 1 0
0.00499045 0.118084 0.0414677 4 1 0
0.00498924 0.117862 0.0415766 4 1 0
0.004988 0.117641 0.0416858 4 1 0
0.00498675 0.11742 0.0417951 4 1 0
0.00498548 0.1172 0.0419048 4 1 0
0.00498418 0.116979 0.0420146 4 1 0
0.00498286 0.116759 0.0421246 4 1 0
0.00498153 0.116539 0.0422351 4 1 0
0.00498016 0.11632 0.0423454 4 1 0
0.00497878 0.116101 0.042456 4 1 0
0.00497738 0.115882 0.0425666 4 1 0
0.00497595 0.115663 0.0426776 4 1 0
0.0049745 0.115445 0.0427888 4 1 0
0.00497302 0.115227 0.0429002 4 1 0
0.00497152 0.115009 0.0430118 4 1 0
0.00497 0.114791 0.0431237 4 1 0
0.00496846 0.114574 0.0432357 4 1 0
0.00496688 0.114356 0.043348 4 1 0
0.00496529 0.11414 0.0434605 4 1 0
0.00496367 0.113923 0.0435732 4 1 0
0.00496202 0.113706 0.0436861 4 1 0
0.00496035 0.11349 0.0437993 4 1 0
0.00495865 0.113274 0.0439127 4 1 0
0.00495693 0.113059 0.0440263 4 1 0
0.00495518 0.112843 0.0441401 4 1 0
0.0049534 0.112628 0.0442542 4 1 0
0.0049516 0.112413 0.0443683 4 1 0
0.00494977 0.112199 0.0444826 4 1 0
0.00494791 0.111985 0.044597 4 1 0
0.00494602 0.11177 0.0447118 4 1 0
0.0049441 0.111557 0.0448268 4 1 0
0.00494215 0.111343 0.0449421 4 1 0
0.00494018 0.11113 0.0450575 4 1 0
0.00493817 0.110917 0.0451732 4 1 0
0.00493614 0.110704 0.0452891 4 1 0
0.00493407 0.110492 0.0454053 4 1 0
0.00493197 0.110279 0.0455217 4 1 0
0.00492984 0.110067 0.0456381 4 1 0
0.00492768 0.109855 0.0457549 4 1 0
0.00492549 0.109644 0.0458719 4 1 0
0.00492326 0.109432 0.0459895 4 1 0
0.004921 0.109221 0.0461068 4 1 0
0.00491871 0.109011 0.0462244 4 1 0
0.00491638 0.1088 0.046342 4 1 0
0.00491402 0.10859 0.0464601 4 1 0
0.00491162 0.10838 0.0465784 4 1 0
0.00490919 0.10817 0.046697 4 1 0
0.00490672 0.10796 0.0468158 4 1 0
0.00490421 0.107751 0.0469348 4 1 0
0.00490167 0.107542 0.047054 4 1 0
0.00489908 0.107333 0.0471735 4 1 0
0.00489646 0.107124 0.0472932 4 1 0
0.0048938 0.106916 0.0474131 4 1 0
0.00489111 0.106708 0.0475333 4 1 0
0.00488837 0.1065 0.0476536 4 1 0
0.00488559 0.106293 0.0477739 4 1 0
0.00488276 0.106085 0.0478947 4 1 0
0.0048799 0.105878 0.0480156 4 1 0
0.00487699 0.105671 0.0481368 4 1 0
0.00487404 0.105464 0.0482583 4 1 0
0.00487105 0.105258 0.04838 4 1 0
0.00486801 0.105051 0.0485021 4 1 0
0.00486492 0.104845 0.0486243 4 1 0
0.00486179 0.10464 0.0487467 4 1 0
0.00485861 0.104435 0.0488695 4 1 0
0.00485538 0.104229 0.0489923 4 1 0
0.00485211 0.104024 0.0491153 4 1 0
0.00484878 0.103819 0.0492387 4 1 0
0.0048454 0.103615 0.0493622 4 1 0
0.00484198 0.10341 0.049486 4 1 0
0.0048385 0.103206 0.0496098 4 1 0
0.00483497 0.103002 0.0497341 4 1 0
0.00483138 0.102798 0.0498586 4 1 0
0.00482774 0.102595 0.0499835 4 1 0
0.00482404 0.102392 0.0501085 4 1 0
0.00482028 0.102189 0.0502338 4 1 0
0.00481647 0.101986 0.0503594 4 1 0
0.0048126 0.101784 0.0504851 4 1 0
0.00480867 0.101582 0.050611 4 1 0
0.00480467 0.101379 0.0507371 4 1 0
0.00480062 0.101177 0.0508635 4 1 0
0.0047965 0.100975 0.0509902 4 1 0
0.00479232 0.100775 0.0511171 4 1 0
0.00478807 0.100573 0.0512443 4 1 0
0.00478375 0.100372 0.0513717 4 1 0
0.00477936 0.100172 0.0514994 4 1 0
0.00477491 0.0999711 0.0516274 4 1 0
0.00477038 0.0997707 0.0517556 4 1 0
0.00476578 0.0995702 0.0518843 4 1 0
0.00476111 0.0993702 0.052013 4 1 0
0.00475636 0.0991705 0.052142 4 1 0
0.00475153 0.0989713 0.0522711 4 1 0
0.00474662 0.098772 0.0524005 4 1 0
0.00474164 0.0985729 0.0525302 4 1 0
0.00473657 0.0983743 0.0526602 4 1 0
0.00473142 0.0981757 0.0527904 4 1 0
0.00472618 0.0979772 0.0529208 4 1 0
0.00472085 0.0977785 0.0530515 4 1 0
0.00471544 0.0975804 0.0531826 4 1 0
0.00470994 0.0973825 0.0533139 4 1 0
0.00470434 0.0971848 0.0534456 4 1 0
0.00469864 0.0969874 0.0535774 4 1 0
0.00469285 0.0967902 0.0537096 4 1 0
0.00468696 0.0965936 0.053842 4 1 0
0.00468097 0.0963968 0.0539746 4 1 0
0.00467487 0.0962001 0.0541074 4 1 0
0.00466867 0.0960035 0.0542406 4 1 0
0.00466235 0.0958072 0.054374 4 1 0
0.00465593 0.0956111 0.0545077 4 1 0
0.00464939 0.0954151 0.0546416 4 1 0
0.00464274 0.0952194 0.0547759 4 1 0
0.00463596 0.0950239 0.0549105 4 1 0
0.00462906 0.0948285 0.0550454 4 1 0
0.00462204 0.0946333 0.0551805 4 1 0
0.00461489 0.0944382 0.055316 4 1 0
0.0046076 0.0942433 0.0554518 4 1 0
0.00460018 0.0940486 0.0555878 4 1 0
0.00459262 0.0938542 0.0557242 4 1 0
0.00458492 0.0936604 0.0558608 4 1 0
0.00457707 0.0934663 0.0559976 4 1 0
0.00456907 0.0932724 0.0561347 4 1 0
0.00456092 0.0930781 0.056272 4 1 0
0.00455261 0.0928845 0.0564098 4 1 0
0.00454414 0.0926911 0.0565478 4 1 0
0.0045355 0.0924982 0.0566861 4 1 0
0.00452669 0.0923051 0.0568248 4 1 0
0.0045177 0.0921122 0.0569638 4 1 0
0.00450854 0.0919194 0.0571031 4 1 0
0.00449918 0.0917267 0.0572427 4 1 0
0.00448964 0.0915342 0.0573826 4 1 0
0.0044799 0.0913415 0.0575229 4 1 0
0.00446995 0.0911494 0.0576634 4 1 0
0.0044598 0.0909574 0.0578043 4 1 0
0.00444943 0.0907659 0.0579455 4 1 0
0.00443884 0.0905741 0.058087 4 1 0
0.00442802 0.0903825 0.0582288 4 1 0
0.00441697 0.0901908 0.0583712 4 1 0
0.00440567 0.0899996 0.0585136 4 1 0
0.00439412 0.0898084 0.0586564 4 1 0
0.00438232 0.0896174 0.0587995 4 1 0
0.00437025 0.0894264 0.058943 4 1 0
0.0043579 0.0892356 0.0590868 4 1 0
0.00434528 0.0890449 0.059231 4 1 0
0.00433235 0.0888545 0.0593755 4 1 0
0.00431913 0.0886641 0.0595203 4 1 0
0.00430559 0.0884738 0.0596654 4 1 0
0.00429173 0.0882836 0.0598109 4 1 0
0.00427753 0.0880935 0.0599567 4 1 0
0.00426299 0.0879036 0.0601028 4 1 0
0.00424809 0.0877138 0.0602494 4 1 0
0.00423281 0.0875241 0.0603963 4 1 0
0.00421716 0.0873349 0.0605434 4 1 0
0.0042011 0.0871455 0.060691 4 1 0
0.00418463 0.0869562 0.0608387 4 1 0
0.00416773 0.0867672 0.0609869 4 1 0
0.00415039 0.0865783 0.0611353 4 1 0
0.00413259 0.0863895 0.061284 4 1 0
0.00411431 0.0862007 0.0614331 4 1 0
0.00409553 0.0860123 0.0615824 4 1 0
0.00407624 0.085824 0.0617321 4 1 0
0.00405642 0.0856357 0.061882 4 1 0
0.00403604 0.0854479 0.0620323 4 1 0
0.00401508 0.0852603 0.0621827 4 1 0
0.00399353 0.0850727 0.0623331 4 1 0
0.00397135 0.0848857 0.0624838 4 1 0
0.00394853 0.0846989 0.0626347 4 1 0
0.00392503 0.0845123 0.0627858 4 1 0
0.00390084 0.0843262 0.0629366 4 1 0
0.00387592 0.0841408 0.0630875 4 1 0
0.00385026 0.0839556 0.0632384 4 1 0
0.00382381 0.0837713 0.0633888 4 1 0
0.00379656 0.0835876 0.0635391 4 1 0
0.00376848 0.0834049 0.0636887 4 1 0
0.00373954 0.0832231 0.0638377 4 1 0
0.00370972 0.0830425 0.0639858 4 1 0
0.00367899 0.0828634 0.0641329 4 1 0
0.00364734 0.0826863 0.0642781 4 1 0
0.00361476 0.0825112 0.0644216 4 1 0
0.00358126 0.0823389 0.0645626 4 1 0
0.00354683 0.08217 0.0647004 4 1 0
0.00351154 0.082005 0.0648342 4 1 0
0.00347543 0.0818452 0.0649627 4 1 0
0.00343863 0.0816921 0.0650847 4 1 0
0.0034013 0.081547 0.0651984 4 1 0
0.0033637 0.0814121 0.0653019 4 1 0
0.00332618 0.0812897 0.0653927 4 1 0
0.00328917 0.0811827 0.0654681 4 1 0
0.00325322 0.0810933 0.0655257 4 1 0
0.00321888 0.0810237 0.0655635 4 1 0
0.00318665 0.0809757 0.0655803 4 1 0
0.0031569 0.0809489 0.0655764 4 1 0
0.00312979 0.0809426 0.0655527 4 1 0
0.00310533 0.0809548 0.0655112 4 1 0
0.00308336 0.080984 0.0654542 4 1 0
0.00306369 0.0810275 0.0653838 4 1 0
0.00304606 0.0810833 0.0653021 4 1 0
0.00303024 0.0811495 0.0652109 4 1 0
0.00301599 0.0812249 0.0651118 4 1 0
0.00300313 0.0813078 0.0650059 4 1 0
0.00299146 0.0813972 0.0648942 4 1 0
0.00298085 0.0814921 0.0647783 4 1 0
0.00297116 0.0815918 0.0646576 4 1 0
0.00296227 0.0816961 0.0645343 4 1 0
0.0029541 0.0818038 0.0644074 4 1 0
0.00294655 0.0819145 0.0642783 4 1 0
0.00293957 0.082028 0.0641473 4 1 0
0.00293308 0.0821438 0.0640145 4 1 0
0.00292704 0.0822622 0.0638798 4 1 0
0.0029214 0.0823822 0.0637439 4 1 0
0.00291613 0.0825042 0.0636072 4 1 0
0.00291117 0.0826274 0.0634695 4 1 0
0.00290652 0.0827519 0.0633312 4 1 0
0.00290213 0.0828776 0.0631921 4 1 0
0.00289799 0.0830047 0.0630522 4 1 0
0.00289407 0.0831323 0.062912 4 1 0
0.00289035 0.0832611 0.0627714 4 1 0
0.00288682 0.08339 0.0626306 4 1 0
0.00288347 0.08352 0.0624897 4 1 0
0.00288028 0.0836512 0.0623486 4 1 0
0.00287723 0.0837821 0.0622075 4 1 0
0.00287432 0.0839136 0.0620664 4 1 0
0.00287153 0.0840461 0.0619253 4 1 0
0.00286886 0.084178 0.0617842 4 1 0
0.0028663 0.0843111 0.0616433 4 1 0
0.00286384 0.0844443 0.0615025 4 1 0
0.00286148 0.0845775 0.0613619 4 1 0
0.00285921 0.0847112 0.0612215 4 1 0
0.00285702 0.0848445 0.0610813 4 1 0
0.0028549 0.0849786 0.0609413 4 1 0
0.00285286 0.0851123 0.0608016 4 1 0
0.00285089 0.0852464 0.0606622 4 1 0
0.00284898 0.0853806 0.0605232 4 1 0
0.00284713 0.0855145 0.0603846 4 1 0
0.00284534 0.0856486 0.0602463 4 1 0
0.0028436 0.0857829 0.0601083 4 1 0
0.00284191 0.0859165 0.0599707 4 1 0
0.00284027 0.086051 0.0598336 4 1 0
0.00283868 0.0861846 0.0596967 4 1 0
0.00283713 0.0863185 0.05956 4 1 0
0.00283562 0.0864521 0.0594238 4 1 0
0.00283415 0.0865861 0.0592879 4 1 0
0.00283271 0.0867195 0.0591527 4 1 0
0.00283131 0.0868521 0.0590177 4 1 0
0.00282994 0.0869857 0.0588832 4 1 0
0.0028286 0.0871187 0.0587493 4 1 0
0.0028273 0.0872514 0.0586158 4 1 0
0.00282602 0.087383 0.0584828 4 1 0
0.00282476 0.087516 0.0583503 4 1 0
0.00282354 0.0876477 0.0582183 4 1 0
0.00282233 0.0877788 0.0580869 4 1 0
0.00282115 0.0879102 0.0579561 4 1 0
0.00282 0.0880414 0.0578258 4 1 0
0.00281886 0.0881725 0.0576961 4 1 0
0.00281774 0.0883027 0.0575668 4 1 0
0.00281665 0.088432 0.0574382 4 1 0
0.00281557 0.0885616 0.0573102 4 1 0
0.00281451 0.0886903 0.0571829 4 1 0
0.00281346 0.0888197 0.0570556 4 1 0
0.00281243 0.088948 0.0569288 4 1 0
0.00281142 0.0890755 0.0568029 4 1 0
0.00281042 0.0892018 0.0566774 4 1 0
0.00280943 0.0893291 0.0565526 4 1 0
0.00280846 0.0894552 0.0564285 4 1 0
0.0028075 0.089581 0.0563051 4 1 0
0.00280655 0.0897056 0.0561823 4 1 0
0.00280562 0.0898298 0.0560603 4 1 0
0.00280469 0.0899524 0.0559389 4 1 0
0.00280378 0.0900761 0.0558183 4 1 0
0.00280287 0.0901986 0.0556984 4 1 0
0.00280198 0.0903198 0.0555793 4 1 0
0.00280109 0.0904397 0.0554609 4 1 0
0.00280021 0.0905595 0.0553434 4 1 0
0.00279935 0.090679 0.0552267 4 1 0
0.00279849 0.090797 0.0551109 4 1 0
0.00279763 0.090914 0.0549955 4 1 0
0.00279679 0.0910298 0.0548814 4 1 0
0.00279595 0.0911441 0.0547682 4 1 0
0.00279512 0.0912576 0.0546558 4 1 0
0.00279429 0.0913707 0.0545443 4 1 0
0.00279347 0.0914828 0.0544333 4 1 0
0.00279265 0.091593 0.054323 4 1 0
0.00279184 0.0917019 0.0542142 4 1 0
0.00279104 0.0918088 0.0541066 4 1 0
0.00279024 0.0919144 0.0540001 4 1 0
0.00278944 0.0920192 0.0538948 4 1 0
0.00278865 0.0921227 0.0537907 4 1 0
0.00278787 0.0922237 0.0536883 4 1 0
0.00278708 0.0923235 0.053587 4 1 0
0.0027863 0.0924209 0.0534871 4 1 0
0.00278552 0.0925165 0.0533876 4 1 0
0.00278475 0.0926094 0.0532898 4 1 0
0.00278398 0.0927003 0.0531937 4 1 0
0.00278321 0.0927892 0.0530991 4 1 0
0.00278245 0.0928765 0.0530064 4 1 0
0.00278168 0.0929612 0.0529154 4 1 0
0.00278092 0.0930427 0.0528264 4 1 0
0.00278016 0.0931209 0.0527393 4 1 0
0.00277941 0.0931957 0.0526543 4 1 0
0.00277865 0.0932685 0.0525716 4 1 0
0.0027779 0.0933383 0.0524903 4 1 0
0.00277715 0.0934042 0.0524113 4 1 0
0.0027764 0.0934653 0.0523345 4 1 0
0.00277565 0.0935228 0.0522607 4 1 0
0.0027749 0.0935778 0.0521897 4 1 0
0.00277416 0.0936279 0.0521215 4 1 0
0.00277342 0.0936725 0.0520565 4 1 0
0.00277267 0.0937121 0.0519947 4 1 0
0.00277194 0.093749 0.051936 4 1 0
0.0027712 0.0937795 0.0518811 4 1 0
0.00277046 0.0938041 0.0518296 4 1 0
0.00276973 0.093822 0.0517806 4 1 0
0.002769 0.0938362 0.0517365 4 1 0
0.00276828 0.093844 0.0516966 4 1 0
0.00276756 0.0938451 0.0516612 4 1 0
0.00276684 0.0938394 0.0516302 4 1 0
0.00276613 0.0938266 0.051604 4 1 0
0.00276542 0.0938075 0.0515825 4 1 0
0.00276472 0.0937825 0.0515649 4 1 0
0.00276403 0.0937503 0.0515521 4 1 0
0.00276334 0.0937108 0.0515444 4 1 0
0.00276266 0.0936641 0.0515418 4 1 0
0.00276198 0.0936101 0.0515442 4 1 0
0.00276132 0.0935502 0.0515526 4 1 0
0.00276066 0.093484 0.0515651 4 1 0
0.00276001 0.0934109 0.0515818 4 1 0
0.00275937 0.0933304 0.0516032 4 1 0
0.00275874 0.0932443 0.0516299 4 1 0
0.00275812 0.0931536 0.0516614 4 1 0
0.00275751 0.093057 0.0516978 4 1 0
0.00275691 0.0929542 0.0517371 4 1 0
0.00275631 0.0929014 0.0517806 4 1 0
0.00275573 0.092893 0.0518282 4 1 0
0.00275515 0.0928783 0.0518798 4 1 0
0.00275458 0.0928577 0.0519352 4 1 0
0.00275402 0.0928318 0.0519945 4 1 0
0.00275346 0.0928026 0.0520569 4 1 0
0.00275291 0.0927681 0.0521215 4 1 0
0.00275237 0.0927288 0.0521895 4 1 0
0.00275183 0.0926851 0.05226 4 1 0
0.0027513 0.0926368 0.0523333 4 1 0
0.00275077 0.0925855 0.0524094 4 1 0
0.00275025 0.0925296 0.0524879 4 1 0
0.00274973 0.0924718 0.0525688 4 1 0
0.00274922 0.0924102 0.052653 4 1 0
0.0027487 0.0923444 0.0527376 4 1 0
0.00274819 0.0922754 0.0528243 4 1 0
0.00274768 0.0922045 0.052913 4 1 0
0.00274718 0.0921311 0.053004 4 1 0
0.00274667 0.0920553 0.0530968 4 1 0
0.00274617 0.0919763 0.0531909 4 1 0
0.00274566 0.0918952 0.0532871 4 1 0
0.00274515 0.0918114 0.0533848 4 1 0
0.00274465 0.091725 0.0534826 4 1 0
0.00274414 0.091638 0.0535826 4 1 0
0.00274363 0.0915486 0.0536841 4 1 0
0.00274312 0.0914563 0.0537869 4 1 0
0.00274261 0.0913625 0.0538909 4 1 0
0.00274209 0.0912683 0.0539961 4 1 0
0.00274157 0.0911706 0.0541028 4 1 0
0.00274105 0.0910733 0.05421 4 1 0
0.00274052 0.090974 0.0543184 4 1 0
0.00273999 0.0908725 0.0544284 4 1 0
0.00273945 0.0907693 0.0545393 4 1 0
0.00273891 0.0906658 0.0546514 4 1 0
0.00273836 0.0905608 0.0547638 4 1 0
0.00273781 0.0904549 0.0548768 4 1 0
0.00273725 0.0903474 0.0549908 4 1 0
0.00273668 0.0902385 0.0551058 4 1 0
0.00273611 0.090128 0.0552219 4 1 0
0.00273553 0.0900179 0.055339 4 1 0
0.00273494 0.0899066 0.0554576 4 1 0
0.00273434 0.0897935 0.0555757 4 1 0
0.00273373 0.089679 0.0556947 4 1 0
0.00273311 0.0895652 0.0558148 4 1 0
0.00273249 0.0894502 0.055936 4 1 0
0.00273185 0.0893339 0.056058 4 1 0
0.0027312 0.0892169 0.05618 4 1 0
0.00273054 0.0890988 0.0563028 4 1 0
0.00272987 0.0889795 0.0564263 4 1 0
0.00272919 0.0888605 0.0565508 4 1 0
0.00272849 0.0887401 0.0566759 4 1 0
0.00272778 0.08862 0.0568018 4 1 0
0.00272705 0.0884987 0.0569292 4 1 0
0.00272632 0.0883763 0.0570562 4 1 0
0.00272556 0.0882528 0.0571836 4 1 0
0.00272479 0.0881304 0.0573116 4 1 0
0.002724 0.0880059 0.0574407 4 1 0
0.00272319 0.0878814 0.0575707 4 1 0
0.00272237 0.0877565 0.0577013 4 1 0
0.00272153 0.0876312 0.0578325 4 1 0
0.00272066 0.0875047 0.0579637 4 1 0
0.00271978 0.0873777 0.0580955 4 1 0
0.00271887 0.0872505 0.0582282 4 1 0
0.00271794 0.0871232 0.0583617 4 1 0
0.00271699 0.0869947 0.0584962 4 1 0
0.00271601 0.0868662 0.0586312 4 1 0
0.002715 0.0867367 0.0587661 4 1 0
0.00271397 0.0866073 0.0589013 4 1 0
0.00271291 0.0864772 0.0590376 4 1 0
0.00271182 0.086346 0.0591746 4 1 0
0.00271069 0.0862155 0.0593126 4 1 0
0.00270954 0.0860843 0.0594511 4 1 0
0.00270834 0.0859521 0.0595896 4 1 0
0.00270712 0.0858202 0.0597289 4 1 0
0.00270585 0.0856875 0.0598686 4 1 0
0.00270454 0.0855539 0.060009 4 1 0
0.0027032 0.0854212 0.0601502 4 1 0
0.0027018 0.0852872 0.0602921 4 1 0
0.00270036 0.0851527 0.0604346 4 1 0
0.00269887 0.0850186 0.0605773 4 1 0
0.00269733 0.0848834 0.0607205 4 1 0
0.00269573 0.084748 0.0608645 4 1 0
0.00269407 0.0846125 0.0610091 4 1 0
0.00269235 0.0844761 0.0611544 4 1 0
0.00269057 0.0843402 0.0613004 4 1 0
0.00268871 0.0842032 0.0614468 4 1 0
0.00268678 0.0840662 0.061594 4 1 0
0.00268477 0.0839283 0.0617418 4 1 0
0.00268268 0.0837909 0.06189 4 1 0
0.0026805 0.0836522 0.0620387 4 1 0
0.00267822 0.0835142 0.0621881 4 1 0
0.00267584 0.083375 0.0623382 4 1 0
0.00267334 0.083236 0.062489 4 1 0
0.00267074 0.0830963 0.0626404 4 1 0
0.002668 0.0829561 0.0627925 4 1 0
0.00266513 0.0828162 0.0629452 4 1 0
0.00266211 0.0826751 0.0630986 4 1 0
0.00265893 0.0825343 0.0632525 4 1 0
0.00265558 0.082393 0.0634072 4 1 0
0.00265204 0.0822511 0.0635625 4 1 0
0.0026483 0.0821089 0.0637183 4 1 0
0.00264434 0.0819662 0.063875 4 1 0
0.00264014 0.0818234 0.0640324 4 1 0
0.00263567 0.0816795 0.0641904 4 1 0
0.00263091 0.0815359 0.0643493 4 1 0
0.00262583 0.0813915 0.0645089 4 1 0
0.00262039 0.0812466 0.0646694 4 1 0
0.00261457 0.0811011 0.0648306 4 1 0
0.0026083 0.0809548 0.0649928 4 1 0
0.00260155 0.0808085 0.0651556 4 1 0
0.00259425 0.0806609 0.0653192 4 1 0
0.00258633 0.0805129 0.0654839 4 1 0
0.00257772 0.0803642 0.0656497 4 1 0
0.00256831 0.0802144 0.0658166 4 1 0
0.00255801 0.0800636 0.0659843 4 1 0
0.00254668 0.0799118 0.0661537 4 1 0
0.00253416 0.0797586 0.0663238 4 1 0
0.00252027 0.079604 0.0664957 4 1 0
0.00250479 0.0794475 0.0666688 4 1 0
0.00248747 0.0792897 0.0668437 4 1 0
0.00246801 0.0791298 0.06702 4 1 0
0.00244605 0.0789679 0.067198 4 1 0
0.00242121 0.0788035 0.0673775 4 1 0
0.00239307 0.0786367 0.0675583 4 1 0
0.00236121 0.0784681 0.0677399 4 1 0
0.00232529 0.0782978 0.0679214 4 1 0
0.00228508 0.078127 0.0681016 4 1 0
0.00224059 0.077957 0.0682783 4 1 0
0.00219204 0.0777901 0.0684492 4 1 0
0.00213997 0.0776291 0.0686104 4 1 0
0.00208523 0.0774788 0.0687557 4 1 0
0.00202945 0.0773482 0.0688723 4 1 0
0.00197691 0.0772578 0.0689314 4 1 0
0.00193682 0.0772326 0.0689 4 1 0
0.00191273 0.0772582 0.0688038 4 1 0
0.0018979 0.0773028 0.0686846 4 1 0
0.00188776 0.0773504 0.0685615 4 1 0
0.00188027 0.077394 0.0684428 4 1 0
0.00187439 0.0774291 0.0683344 4 1 0
0.00186956 0.0774528 0.0682398 4 1 0
0.00186544 0.0774629 0.0681608 4 1 0
0.00186181 0.0774581 0.0681003 4 1 0
0.00185851 0.0774369 0.0680598 4 1 0
0.00185543 0.0773986 0.0680398 4 1 0
0.00185249 0.0773423 0.0680414 4 1 0
0.00184963 0.0772687 0.0680652 4 1 0
0.00184676 0.0771771 0.0681113 4 1 0
0.00184384 0.0770688 0.0681792 4 1 0
0.00184078 0.0769445 0.0682674 4 1 0
0.00183751 0.0768055 0.0683759 4 1 0
0.00183391 0.0766535 0.068502 4 1 0
0.00182985 0.0764911 0.0686449 4 1 0
0.00182509 0.0763209 0.0688017 4 1 0
0.00181932 0.0762026 0.0689697 4 1 0
0.00181198 0.0762432 0.069146 4 1 0
0.00180212 0.0762749 0.0693258 4 1 0
0.00178787 0.0762967 0.069504 4 1 0
0.00176546 0.076303 0.0696748 4 1 0
0.00172796 0.0762767 0.0698348 4 1 0
0.00167182 0.0761997 0.0699847 4 1 0
0.00160801 0.076091 0.0701221 4 1 0
0.00154297 0.0759736 0.0702509 4 1 0
0.00147737 0.075859 0.0703709 4 1 0
0.00141264 0.0757845 0.070462 4 1 0
0.00132455 0.0754969 0.0707426 4 1 0
0.00124424 0.0753575 0.0708721 4 1 0
0.00117732 0.0752344 0.0709931 4 1 0
0.00111055 0.0751229 0.0711281 4 1 0
0.00104307 0.0749845 0.0712373 4 1 0
0.00097599 0.0748588 0.0713597 4 1 0
0.000909142 0.0747359 0.0714801 4 1 0
0.000842293 0.074612 0.0716017 4 1 0
0.000775457 0.0744893 0.0717223 4 1 0
0.000708634 0.0743673 0.0718425 4 1 0
0.000641829 0.0742459 0.0719621 4 1 0
0.000575043 0.0741251 0.0720813 4 1 0
0.000508276 0.0740048 0.0722001 4 1 0
0.000441529 0.073885 0.0723187 4 1 0
0.000374801 0.0737657 0.0724369 4 1 0
0.000308089 0.0736467 0.072555 4 1 0
0.000241391 0.0735281 0.0726729 4 1 0
0.000174705 0.0734098 0.0727906 4 1 0
0.000108028 0.073292 0.0729081 4 1 0
4.13556e-05 0.0731755 0.0730246 4 1 0
4.1342e-05 0.0731755 0.0730247 4 1 0
-2.53143e-05 0.0731488 0.0730518 4 1 0
0.004 0.432042 0.00137408 4 1 0
0.00398831 0.428549 0.001551 3 1 0
0.00390753 0.44606 0.0013066 3 1 0
0.00390058 0.447633 0.00128734 3 1 0
0.00389364 0.449161 0.00126834 3 1 0
0.00388673 0.450686 0.00124963 3 1 0
0.00387982 0.45222 0.00123126 3 1 0
0.00387293 0.453748 0.00121316 3 1 0
0.00386606 0.455273 0.00119535 3 1 0
0.0038592 0.456799 0.0011778 3 1 0
0.00385236 0.458334 0.00116049 3 1 0
0.00384553 0.459866 0.00114345 3 1 0
0.00383872 0.461393 0.00112666 3 1 0
0.00383192 0.462915 0.0011102 3 1 0
0.00382514 0.464439 0.001094 3 1 0
0.00381838 0.465977 0.00107817 3 1 0
0.00381163 0.467499 0.00106243 3 1 0
0.0038049 0.469017 0.00104695 3 1 0
0.00379819 0.470543 0.00103175 3 1 0
0.0037915 0.472072 0.00101678 3 1 0
0.00378482 0.473595 0.00100206 3 1 0
0.00377817 0.475114 0.000987584 3 1 0
0.00377153 0.476629 0.00097337 3 1 0
0.00376492 0.478137 0.000959398 3 1 0
0.00375832 0.47966 0.000945712 3 1 0
0.00375175 0.481172 0.000932228 3 1 0
0.00374519 0.482677 0.000918979 3 1 0
0.00373866 0.484183 0.000905825 3 1 0
0.00373215 0.485689 0.000892981 3 1 0
0.00372567 0.487187 0.000880366 3 1 0
0.00371921 0.488677 0.00086806 3 1 0
0.00371277 0.490175 0.000855924 3 1 0
0.00370636 0.491665 0.000843958 3 1 0
0.00369997 0.493148 0.000832203 3 1 0
0.00369361 0.494627 0.000820711 3 1 0
0.00368728 0.496098 0.000809386 3 1 0
0.00368097 0.497558 0.000798238 3 1 0
0.00367469 0.499029 0.000787324 3 1 0
0.00366845 0.500491 0.000776622 3 1 0
0.00366223 0.501941 0.000766125 3 1 0
0.00365605 0.50338 0.000755851 3 1 0
0.0036499 0.504808 0.000745784 3 1 0
0.00364378 0.506251 0.000735963 3 1 0
0.0036377 0.507669 0.00072632 3 1 0
0.00363166 0.509074 0.000716863 3 1 0
0.00362565 0.510483 0.000707503 3 1 0
0.00361969 0.511873 0.00069843 3 1 0
0.00361376 0.513248 0.000689563 3 1 0
0.00360789 0.514619 0.000680981 3 1 0
0.00360205 0.515977 0.000672532 3 1 0
0.00359627 0.517319 0.000664243 3 1 0
0.00359053 0.51864 0.000656221 3 1 0
0.00358485 0.519957 0.00064834 3 1 0
0.00357922 0.521253 0.000640672 3 1 0
0.00357366 0.522515 0.000633208 3 1 0
0.00356815 0.523781 0.000625978 3 1 0
0.00356272 0.525022 0.00061897 3 1 0
0.00355735 0.526227 0.000612188 3 1 0
0.00355206 0.527411 0.000605632 3 1 0
0.00354685 0.528582 0.000599312 3 1 0
0.00354173 0.529723 0.00059324 3 1 0
0.00353671 0.530823 0.000587415 3 1 0
0.00353178 0.531886 0.00058185 3 1 0
0.00352696 0.532928 0.000576509 3 1 0
0.00352227 0.53392 0.000571486 3 1 0
0.0035177 0.534867 0.000566757 3 1 0
0.00351327 0.535767 0.000562313 3 1 0
0.003509 0.536616 0.00055816 3 1 0
0.0035049 0.537406 0.000554353 3 1 0
0.00350099 0.538121 0.000550912 3 1 0
0.00349729 0.538783 0.00054787 3 1 0
0.00349382 0.539368 0.00054525 3 1 0
0.00349109 0.539857 0.000543087 3 1 0
0.00348817 0.540257 0.000541407 3 1 0
0.00348556 0.540569 0.000540247 3 1 0
0.00348329 0.540782 0.000539671 3 1 0
0.00348137 0.540867 0.000539614 3 1 0
0.00347984 0.540831 0.000540182 3 1 0
0.00347872 0.540668 0.000541457 3 1 0
0.00347804 0.540376 0.00054337 3 1 0
0.0034778 0.539949 0.000545947 3 1 0
0.0034778 0.539949 0.000545945 3 1 0
0.00347804 0.53939 0.000549218 3 1 0
0.00347867 0.538708 0.000553146 4 1 0
0.00347986 0.537897 0.000557774 3 1 0
0.00348129 0.536976 0.000563008 4 1 0
0.0034833 0.535942 0.000568896 3 1 0
0.00348734 0.533953 0.000580249 3 1 0
0.00349021 0.532671 0.000587639 4 1 0
0.00349338 0.531315 0.000595521 4 1 0
0.00349682 0.529907 0.000603845 4 1 0
0.00350051 0.528432 0.000612601 4 1 0
0.00350438 0.526921 0.000621687 4 1 0
0.00350858 0.525379 0.000631243 3 1 0
0.00351314 0.523783 0.000641124 3 1 0
0.00351754 0.522154 0.000651344 3 1 0
0.00352208 0.520506 0.000661918 3 1 0
0.00352676 0.518829 0.000672772 3 1 0
0.00353155 0.51713 0.000683926 3 1 0
0.00353646 0.515417 0.000695386 3 1 0
0.00354147 0.513695 0.000707106 3 1 0
0.00354657 0.511959 0.000719099 3 1 0
0.00355176 0.510198 0.000731362 3 1 0
0.00355158 0.510203 0.000731321 3 1 0
0.0035569 0.508448 0.000743851 3 1 0
0.00356233 0.506681 0.000756658 3 1 0
0.00356773 0.504918 0.000769716 3 1 0
0.00357319 0.503147 0.000783036 3 1 0
0.00357871 0.501362 0.000796647 3 1 0
0.00358427 0.499572 0.000810484 3 1 0
0.00358989 0.497795 0.00082458 3 1 0
0.00359555 0.496002 0.00083889 3 1 0
0.00360125 0.494223 0.000853522 3 1 0
0.00360699 0.492441 0.000868416 3 1 0
0.00361277 0.490656 0.000883595 3 1 0
0.00361859 0.488868 0.000898993 3 1 0
0.00362443 0.487077 0.000914656 3 1 0
0.00363031 0.485297 0.000930559 3 1 0
0.00363622 0.483516 0.00094677 3 1 0
0.00364215 0.481733 0.000963252 3 1 0
0.00364812 0.479942 0.000980052 3 1 0
0.0036541 0.478173 0.00099709 3 1 0
0.00366011 0.476404 0.00101441 3 1 0
0.00366614 0.474632 0.00103204 3 1 0
0.0036722 0.472858 0.00104987 3 1 0
0.00367827 0.471085 0.00106799 3 1 0
0.00368436 0.469337 0.0010864 3 1 0
0.00369047 0.467574 0.00110509 3 1 0
0.0036966 0.465811 0.00112408 3 1 0
0.00370275 0.464069 0.00114349 3 1 0
0.00370891 0.462314 0.00116306 3 1 0
0.00371509 0.460569 0.00118293 3 1 0
0.00372128 0.45884 0.001203 3 1 0
0.00372748 0.457101 0.0012235 3 1 0
0.0037337 0.455364 0.00124431 3 1 0
0.00373994 0.453639 0.00126551 3 1 0
0.00374618 0.451918 0.00128698 3 1 0
0.00375244 0.450197 0.00130877 3 1 0
0.00375871 0.448477 0.00133087 3 1 0
0.00376499 0.44677 0.00135326 3 1 0
0.00377128 0.445063 0.00137597 3 1 0
0.00377758 0.44335 0.00139898 3 1 0
0.00378389 0.441654 0.00142238 3 1 0
0.00379021 0.439965 0.00144612 3 1 0
0.00379653 0.438266 0.00147022 3 1 0
0.00380287 0.436586 0.00149467 3 1 0
0.00380921 0.43491 0.00151948 3 1 0
0.00381557 0.433232 0.00154467 3 1 0
0.00382193 0.431555 0.0015702 3 1 0
0.00382829 0.429886 0.0015961 3 1 0
0.00383467 0.428232 0.00162241 3 1 0
0.00384105 0.426572 0.00164906 3 1 0
0.00384744 0.424913 0.00167601 3 1 0
0.00385383 0.423268 0.00170328 3 1 0
0.00386023 0.421626 0.00173098 3 1 0
0.00386663 0.419984 0.00175908 3 1 0
0.00387304 0.418343 0.00178756 3 1 0
0.00387945 0.416717 0.00181645 3 1 0
0.00388587 0.415092 0.00184574 3 1 0
0.00389229 0.413469 0.00187548 3 1 0
0.00389872 0.411853 0.00190557 3 1 0
0.00390515 0.410239 0.00193607 3 1 0
0.00391158 0.408629 0.00196704 3 1 0
0.00391802 0.407019 0.00199842 3 1 0
0.00392446 0.405425 0.00203022 3 1 0
0.0039309 0.403836 0.00206253 3 1 0
0.00393735 0.402243 0.00209522 3 1 0
0.0039438 0.400652 0.00212826 3 1 0
0.00395025 0.399081 0.00216173 3 1 0
0.0039567 0.397503 0.00219564 3 1 0
0.00396315 0.395928 0.00223 3 1 0
0.00396961 0.394366 0.00226478 3 1 0
0.00397606 0.392802 0.00230008 3 1 0
0.00398252 0.391239 0.00233584 3 1 0
0.00398898 0.389693 0.00237214 3 1 0
0.00399544 0.388142 0.00240889 3 1 0
0.0040019 0.386592 0.00244612 3 1 0
0.00400836 0.38506 0.00248387 3 1 0
0.00401482 0.383526 0.00252196 3 1 0
0.00402128 0.381993 0.00256055 3 1 0
0.00402774 0.380462 0.00259957 3 1 0
0.00403419 0.378946 0.00263919 3 1 0
0.00404065 0.377431 0.00267932 3 1 0
0.00404711 0.375914 0.00272001 3 1 0
0.00405356 0.374402 0.0027612 3 1 0
0.00406002 0.372904 0.00280292 3 1 0
0.00406647 0.371408 0.0028452 3 1 0
0.00407292 0.369912 0.00288799 3 1 0
0.00407937 0.368418 0.00293123 3 1 0
0.00408582 0.366929 0.00297472 3 1 0
0.00409226 0.365453 0.00301905 3 1 0
0.0040987 0.363979 0.00306394 3 1 0
0.00410514 0.3625 0.00310961 3 1 0
0.00411158 0.361032 0.00315567 3 1 0
0.00411801 0.359573 0.00320217 3 1 0
0.00412444 0.358115 0.003249 3 1 0
0.00413086 0.356659 0.00329665 3 1 0
0.00413729 0.355204 0.00334488 3 1 0
0.0041437 0.353761 0.00339377 3 1 0
0.00415012 0.352322 0.00344322 3 1 0
0.00415653 0.350884 0.00349328 3 1 0
0.00416293 0.349448 0.003544 3 1 0
0.00416933 0.348014 0.00359513 3 1 0
0.00417573 0.346595 0.00364688 3 1 0
0.00418212 0.345177 0.00369918 3 1 0
0.0041885 0.343762 0.00375219 3 1 0
0.00419488 0.342348 0.00380584 3 1 0
0.00420125 0.340943 0.00386029 3 1 0
0.00420762 0.339539 0.00391527 3 1 0
0.00421398 0.338137 0.0039709 3 1 0
0.00422034 0.336745 0.00402683 3 1 0
0.00422669 0.335356 0.00408363 4 1 0
0.00423303 0.333969 0.0041411 4 1 0
0.00423936 0.332584 0.00419927 4 1 0
0.00424569 0.331205 0.00425812 4 1 0
0.00425201 0.329836 0.00431764 4 1 0
0.00425832 0.328467 0.00437787 4 1 0
0.00426463 0.327103 0.00443863 4 1 0
0.00427093 0.325741 0.00450008 4 1 0
0.00427721 0.324379 0.00456219 4 1 0
0.00428349 0.323031 0.00462508 4 1 0
0.00428977 0.321684 0.00468869 4 1 0
0.00429603 0.320339 0.00475312 4 1 0
0.00430228 0.318994 0.0048182 4 1 0
0.00430853 0.31766 0.00488402 4 1 0
0.00431477 0.316328 0.00495034 4 1 0
0.00432099 0.315004 0.00501744 4 1 0
0.00432721 0.313681 0.00508528 4 1 0
0.00433342 0.31236 0.00515385 4 1 0
0.00433961 0.311045 0.00522326 4 1 0
0.0043458 0.309733 0.00529343 4 1 0
0.00435197 0.308424 0.00536455 4 1 0
0.00435814 0.307117 0.0054361 4 1 0
0.00436429 0.305821 0.00550842 4 1 0
0.00437044 0.304528 0.00558145 4 1 0
0.00437657 0.303236 0.0056554 4 1 0
0.00438269 0.301946 0.00573015 4 1 0
0.00438879 0.300662 0.00580584 4 1 0
0.00439489 0.299386 0.00588224 4 1 0
0.00440097 0.298112 0.00595945 4 1 0
0.00440704 0.296838 0.00603705 4 1 0
0.0044131 0.295567 0.00611572 4 1 0
0.00441915 0.294307 0.00619523 4 1 0
0.00442518 0.293049 0.00627563 4 1 0
0.0044312 0.291794 0.00635686 4 1 0
0.00443721 0.290541 0.00643894 4 1 0
0.0044432 0.289291 0.00652187 4 1 0
0.00444917 0.288046 0.00660546 4 1 0
0.00445514 0.28681 0.00668991 4 1 0
0.00446109 0.285575 0.00677518 4 1 0
0.00446702 0.284342 0.00686142 4 1 0
0.00447294 0.283112 0.00694853 4 1 0
0.00447885 0.281887 0.00703658 4 1 0
0.00448474 0.280669 0.0071255 4 1 0
0.00449061 0.279452 0.00721532 4 1 0
0.00449647 0.278234 0.00730581 4 1 0
0.00450231 0.277028 0.00739725 4 1 0
0.00450814 0.275825 0.00748961 4 1 0
0.00451395 0.274623 0.00758292 4 1 0
0.00451974 0.273423 0.00767719 4 1 0
0.00452552 0.272227 0.00777239 4 1 0
0.00453128 0.271039 0.00786859 4 1 0
0.00453702 0.269855 0.00796545 4 1 0
0.00454274 0.268673 0.00806326 4 1 0
0.00454845 0.267493 0.00816196 4 1 0
0.00455414 0.266315 0.00826174 4 1 0
0.00455981 0.265145 0.00836249 4 1 0
0.00456546 0.263976 0.00846443 4 1 0
0.00457109 0.262814 0.00856719 4 1 0
0.00457671 0.261656 0.00867066 4 1 0
0.0045823 0.2605 0.00877498 4 1 0
0.00458788 0.259347 0.00888048 4 1 0
0.00459344 0.258196 0.00898697 4 1 0
0.00459897 0.257052 0.00909454 4 1 0
0.00460449 0.255912 0.00920311 4 1 0
0.00460998 0.254773 0.0093127 4 1 0
0.00461546 0.253636 0.00942323 4 1 0
0.00462091 0.252508 0.00953463 4 1 0
0.00462635 0.251382 0.00964706 4 1 0
0.00463176 0.250259 0.0097605 4 1 0
0.00463715 0.249138 0.00987508 4 1 0
0.00464252 0.248019 0.00999071 4 1 0
0.00464787 0.246907 0.0101076 4 1 0
0.00465319 0.2458 0.0102254 4 1 0
0.0046585 0.244696 0.010344 4 1 0
0.00466377 0.243594 0.0104634 4 1 0
0.00466903 0.242495 0.0105842 4 1 0
0.00467426 0.241398 0.0107061 4 1 0
0.00467947 0.240307 0.0108291 4 1 0
0.00468466 0.239222 0.0109532 4 1 0
0.00468982 0.238139 0.0110784 4 1 0
0.00469496 0.237058 0.0112046 4 1 0
0.00470007 0.23598 0.0113318 4 1 0
0.00470516 0.234905 0.01146 4 1 0
0.00471023 0.233838 0.0115894 4 1 0
0.00471526 0.232773 0.01172 4 1 0
0.00472028 0.231709 0.0118517 4 1 0
0.00472526 0.23065 0.0119847 4 1 0
0.00473022 0.229592 0.0121187 4 1 0
0.00473516 0.22854 0.0122538 4 1 0
0.00474006 0.227492 0.0123897 4 1 0
0.00474495 0.226445 0.012527 4 1 0
0.0047498 0.225404 0.0126653 4 1 0
0.00475462 0.224367 0.0128049 4 1 0
0.00475942 0.223333 0.0129457 4 1 0
0.00476419 0.222301 0.0130877 4 1 0
0.00476894 0.221273 0.0132309 4 1 0
0.00477365 0.220248 0.0133753 4 1 0
0.00477833 0.219226 0.0135207 4 1 0
0.00478299 0.218209 0.0136671 4 1 0
0.00478762 0.217193 0.0138148 4 1 0
0.00479221 0.216179 0.0139637 4 1 0
0.00479678 0.215174 0.0141138 4 1 0
0.00480131 0.214171 0.0142652 4 1 0
0.00480582 0.213169 0.0144179 4 1 0
0.0048103 0.21217 0.0145719 4 1 0
0.00481474 0.211174 0.014727 4 1 0
0.00481915 0.210185 0.0148831 4 1 0
0.00482353 0.209197 0.0150403 4 1 0
0.00482788 0.208214 0.0151989 4 1 0
0.0048322 0.207233 0.0153588 4 1 0
0.00483648 0.206255 0.0155199 4 1 0
0.00484073 0.20528 0.0156824 4 1 0
0.00484495 0.204308 0.0158461 4 1 0
0.00484913 0.203338 0.0160112 4 1 0
0.00485328 0.202375 0.0161775 4 1 0
0.00485739 0.201415 0.0163448 4 1 0
0.00486147 0.200456 0.0165133 4 1 0
0.00486552 0.199502 0.0166832 4 1 0
0.00486953 0.198551 0.0168544 4 1 0
0.0048735 0.197602 0.0170269 4 1 0
0.00487744 0.196657 0.0172008 4 1 0
0.00488134 0.195714 0.0173761 4 1 0
0.00488521 0.194776 0.0175526 4 1 0
0.00488904 0.193841 0.0177305 4 1 0
0.00489283 0.192908 0.0179094 4 1 0
0.00489658 0.191978 0.0180898 4 1 0
0.0049003 0.191053 0.0182713 4 1 0
0.00490397 0.190131 0.0184542 4 1 0
0.00490761 0.189211 0.0186385 4 1 0
0.00491121 0.188295 0.0188242 4 1 0
0.00491477 0.187381 0.0190112 4 1 0
0.00491829 0.18647 0.0191997 4 1 0
0.00492177 0.185562 0.0193896 4 1 0
0.0049252 0.184659 0.0195808 4 1 0
0.0049286 0.183759 0.019773 4 1 0
0.00493195 0.182862 0.0199666 4 1 0
0.00493527 0.181967 0.0201617 4 1 0
0.00493853 0.181076 0.0203582 4 1 0
0.00494176 0.180187 0.0205561 4 1 0
0.00494494 0.1793 0.0207555 4 1 0
0.00494808 0.178417 0.0209564 4 1 0
0.00495118 0.17754 0.0211586 4 1 0
0.00495423 0.176665 0.021362 4 1 0
0.00495723 0.175791 0.0215667 4 1 0
0.00496019 0.17492 0.0217729 4 1 0
0.0049631 0.174054 0.0219805 4 1 0
0.00496597 0.173191 0.0221896 4 1 0
0.00496879 0.17233 0.0224002 4 1 0
0.00497156 0.171472 0.0226123 4 1 0
0.00497428 0.170616 0.0228257 4 1 0
0.00497695 0.169763 0.0230408 4 1 0
0.00497957 0.168916 0.0232571 4 1 0
0.00498215 0.168071 0.0234745 4 1 0
0.00498467 0.167228 0.0236936 4 1 0
0.00498714 0.166388 0.0239142 4 1 0
0.00498956 0.165551 0.0241363 4 1 0
0.00499193 0.164717 0.0243598 4 1 0
0.00499424 0.163886 0.0245849 4 1 0
0.0049965 0.163057 0.0248116 4 1 0
0.00499871 0.162231 0.0250398 4 1 0
0.00500086 0.161408 0.0252692 4 1 0
0.00500295 0.16059 0.0255 4 1 0
0.00500499 0.159774 0.0257323 4 1 0
0.00500697 0.158961 0.0259662 4 1 0
0.00500889 0.158149 0.0262016 4 1 0
0.00501075 0.157342 0.0264386 4 1 0
0.00501256 0.156538 0.0266771 4 1 0
0.0050143 0.155735 0.0269171 4 1 0
0.00501598 0.154935 0.0271588 4 1 0
0.0050176 0.154138 0.027402 4 1 0
0.00501916 0.153346 0.0276466 4 1 0
0.00502065 0.152556 0.0278925 4 1 0
0.00502208 0.151768 0.02814 4 1 0
0.00502344 0.150982 0.0283892 4 1 0
0.00502473 0.1502 0.0286399 4 1 0
0.00502596 0.149421 0.0288923 4 1 0
0.00502712 0.148644 0.0291462 4 1 0
0.00502821 0.147869 0.0294018 4 1 0
0.00502922 0.147099 0.029659 4 1 0
0.00503017 0.146331 0.0299177 4 1 0
0.00503104 0.145566 0.0301777 4 1 0
0.00503184 0.144803 0.0304393 4 1 0
0.00503256 0.144042 0.0307027 4 1 0
0.0050332 0.143285 0.0309676 4 1 0
0.00503377 0.142531 0.0312342 4 1 0
0.00503425 0.141779 0.0315023 4 1 0
0.00503466 0.141029 0.0317722 4 1 0
0.00503498 0.140283 0.0320437 4 1 0
0.00503521 0.13954 0.0323169 4 1 0
0.00503536 0.138798 0.0325918 4 1 0
0.00503543 0.138059 0.0328681 4 1 0
0.00503543 0.137913 0.0329237 4 1 0
0.00503538 0.137178 0.0332019 4 1 0
0.00503525 0.136445 0.0334816 4 1 0
0.00503502 0.135716 0.0337632 4 1 0
0.00503469 0.134988 0.0340464 4 1 0
0.00503427 0.134264 0.0343312 4 1 0
0.00503375 0.133542 0.0346179 4 1 0
0.00503312 0.132823 0.0349061 4 1 0
0.0050324 0.132106 0.0351961 4 1 0
0.00503156 0.131391 0.0354878 4 1 0
0.00503062 0.13068 0.0357812 4 1 0
0.00502957 0.129971 0.0360765 4 1 0
0.0050284 0.129264 0.0363731 4 1 0
0.00502712 0.12856 0.0366715 4 1 0
0.00502572 0.127859 0.0369716 4 1 0
0.00502419 0.127161 0.0372735 4 1 0
0.00502254 0.126465 0.0375772 4 1 0
0.00502077 0.125771 0.0378826 4 1 0
0.00501886 0.12508 0.0381902 4 1 0
0.00501681 0.124391 0.038499 4 1 0
0.00501463 0.123704 0.0388095 4 1 0
0.0050123 0.123022 0.0391218 4 1 0
0.00500982 0.122341 0.039436 4 1 0
0.0050072 0.121662 0.039752 4 1 0
0.00500442 0.120985 0.04007 4 1 0
0.00500147 0.120311 0.0403897 4 1 0
0.00499837 0.11964 0.0407112 4 1 0
0.00499509 0.118971 0.0410341 4 1 0
0.00499164 0.118305 0.0413591 4 1 0
0.004988 0.117641 0.0416861 4 1 0
0.00498418 0.116979 0.0420148 4 1 0
0.00498016 0.116319 0.0423455 4 1 0
0.00497594 0.115662 0.0426781 4 1 0
0.00497152 0.115008 0.0430121 4 1 0
0.00496688 0.114356 0.0433482 4 1 0
0.00496202 0.113706 0.0436864 4 1 0
0.00495693 0.113058 0.0440264 4 1 0
0.00495159 0.112413 0.0443684 4 1 0
0.00494601 0.11177 0.0447125 4 1 0
0.00494017 0.11113 0.0450578 4 1 0
0.00493407 0.110491 0.0454056 4 1 0
0.00492768 0.109855 0.0457554 4 1 0
0.004921 0.109221 0.0461071 4 1 0
0.00491401 0.108589 0.0464605 4 1 0
0.00490671 0.107959 0.046816 4 1 0
0.00489908 0.107332 0.0471737 4 1 0
0.0048911 0.106707 0.0475336 4 1 0
0.00488276 0.106084 0.0478951 4 1 0
0.00487403 0.105464 0.0482586 4 1 0
0.00486491 0.104845 0.0486244 4 1 0
0.00485537 0.104229 0.0489925 4 1 0
0.0048454 0.103614 0.0493624 4 1 0
0.00483496 0.103002 0.0497344 4 1 0
0.00482403 0.102392 0.0501087 4 1 0
0.00481259 0.101783 0.0504855 4 1 0
0.00480061 0.101177 0.050864 4 1 0
0.00478805 0.100573 0.0512447 4 1 0
0.00477489 0.0999706 0.0516277 4 1 0
0.00476109 0.0993702 0.0520131 4 1 0
0.00474661 0.0987717 0.0524009 4 1 0
0.0047314 0.0981751 0.0527907 4 1 0
0.00471543 0.0975803 0.0531829 4 1 0
0.00469863 0.0969874 0.0535776 4 1 0
0.00468095 0.0963961 0.053975 4 1 0
0.00466234 0.0958067 0.0543744 4 1 0
0.00464272 0.095219 0.0547764 4 1 0
0.00462202 0.094633 0.0551809 4 1 0
0.00460016 0.0940486 0.0555881 4 1 0
0.00457705 0.0934657 0.0559979 4 1 0
0.00455258 0.0928843 0.0564104 4 1 0
0.00452666 0.0923044 0.0568255 4 1 0
0.00449915 0.0917259 0.0572433 4 1 0
0.00446991 0.0911487 0.0576639 4 1 0
0.0044388 0.0905732 0.0580875 4 1 0
0.00440563 0.0899989 0.058514 4 1 0
0.0043702 0.0894256 0.0589436 4 1 0
0.0043323 0.0888534 0.0593761 4 1 0
0.00429166 0.0882827 0.0598115 4 1 0
0.00424801 0.0877131 0.0602502 4 1 0
0.00420101 0.0871443 0.0606916 4 1 0
0.00415029 0.0865771 0.061136 4 1 0
0.00409541 0.086011 0.0615834 4 1 0
0.00403589 0.0854466 0.0620334 4 1 0
0.00397116 0.0848841 0.0624851 4 1 0
0.0039006 0.0843245 0.062938 4 1 0
0.0038235 0.083769 0.0633905 4 1 0
0.00373911 0.0832203 0.0638399 4 1 0
0.00364673 0.0826829 0.0642809 4 1 0
0.00354588 0.0821653 0.0647041 4 1 0
0.00343697 0.0816855 0.06509 4 1 0
0.00332303 0.0812801 0.0653997 4 1 0
0.00321324 0.0810141 0.0655678 4 1 0
0.00312257 0.0809442 0.0655428 4 1 0
0.00305713 0.081046 0.0653558 4 1 0
0.0030108 0.0812564 0.065071 4 1 0
0.00297681 0.0815323 0.0647297 4 1 0
0.0029509 0.0818492 0.0643542 4 1 0
0.0029305 0.0821934 0.0639583 4 1 0
0.002914 0.082556 0.0635492 4 1 0
0.00290034 0.0829316 0.0631327 4 1 0
0.00288882 0.0833163 0.0627112 4 1 0
0.00287895 0.0837074 0.062288 4 1 0
0.00287036 0.0841032 0.0618643 4 1 0
0.00286281 0.084502 0.0614415 4 1 0
0.00285609 0.0849031 0.0610203 4 1 0
0.00285005 0.085305 0.0606015 4 1 0
0.00284457 0.085707 0.0601856 4 1 0
0.00283957 0.0861095 0.0597732 4 1 0
0.00283497 0.0865114 0.0593638 4 1 0
0.0028307 0.0869117 0.0589581 4 1 0
0.00282673 0.0873102 0.0585567 4 1 0
0.002823 0.0877062 0.0581599 4 1 0
0.00281949 0.0881 0.0577679 4 1 0
0.00281616 0.0884905 0.0573811 4 1 0
0.00281304 0.0888772 0.0569988 4 1 0
0.00281002 0.0892596 0.0566213 4 1 0
0.00280712 0.0896364 0.0562497 4 1 0
0.00280434 0.0900085 0.0558845 4 1 0
0.00280164 0.0903739 0.055526 4 1 0
0.00279903 0.0907327 0.0551747 4 1 0
0.0027964 0.0910821 0.0548303 4 1 0
0.00279391 0.0914223 0.054493 4 1 0
0.00279147 0.09175 0.0541648 4 1 0
0.00278908 0.092067 0.0538467 4 1 0
0.00278672 0.0923683 0.0535401 4 1 0
0.00278439 0.0926529 0.0532457 4 1 0
0.00278209 0.0929168 0.0529635 4 1 0
0.0027798 0.0931564 0.0526988 4 1 0
0.00277753 0.0933704 0.0524524 4 1 0
0.00277528 0.0935502 0.0522259 4 1 0
0.00277304 0.0936935 0.0520255 4 1 0
0.00277082 0.0937924 0.0518549 4 1 0
0.00276862 0.0938408 0.0517153 4 1 0
0.00276646 0.0938336 0.0516156 4 1 0
0.00276434 0.0937655 0.0515573 4 1 0
0.00276227 0.0936343 0.0515426 4 1 0
0.00276028 0.0934413 0.0515738 4 1 0
0.00275837 0.0931905 0.0516492 4 1 0
0.00275654 0.0929036 0.051764 4 1 0
0.00275479 0.0928661 0.0519147 4 1 0
0.00275311 0.0927798 0.0520985 4 1 0
0.00275148 0.0926533 0.052308 4 1 0
0.00274991 0.0924917 0.0525422 4 1 0
0.00274836 0.0922992 0.0527961 4 1 0
0.00274684 0.09208 0.0530668 4 1 0
0.00274532 0.0918371 0.0533538 4 1 0
0.00274379 0.0915768 0.0536522 4 1 0
0.00274225 0.0912982 0.0539639 4 1 0
0.00274068 0.0910035 0.0542854 4 1 0
0.00273908 0.0906983 0.054616 4 1 0
0.00273742 0.0903803 0.0549559 4 1 0
0.0027357 0.0900511 0.0553035 4 1 0
0.00273392 0.0897143 0.0556596 4 1 0
0.00273204 0.0893688 0.0560212 4 1 0
0.00273007 0.0890158 0.0563896 4 1 0
0.00272799 0.0886553 0.0567642 4 1 0
0.00272579 0.0882898 0.0571457 4 1 0
0.00272343 0.0879179 0.057532 4 1 0
0.00272092 0.0875419 0.057925 4 1 0
0.00271822 0.0871606 0.0583225 4 1 0
0.0027153 0.0867744 0.0587265 4 1 0
0.00271214 0.0863841 0.0591351 4 1 0
0.00270869 0.0859906 0.0595496 4 1 0
0.00270493 0.0855929 0.0599684 4 1 0
0.00270078 0.0851916 0.0603931 4 1 0
0.00269619 0.0847867 0.0608232 4 1 0
0.00269108 0.0843783 0.0612587 4 1 0
0.00268535 0.0839675 0.0617001 4 1 0
0.00267887 0.0835532 0.062146 4 1 0
0.00267148 0.0831354 0.062598 4 1 0
0.00266296 0.0827144 0.0630559 4 1 0
0.00265303 0.0822902 0.0635198 4 1 0
0.00264131 0.081862 0.0639897 4 1 0
0.00262723 0.0814303 0.064466 4 1 0
0.00261002 0.0809941 0.0649495 4 1 0
0.00258847 0.0805519 0.0654405 4 1 0
0.00256076 0.0801026 0.065941 4 1 0
0.00252389 0.0796428 0.0664524 4 1 0
0.00247287 0.0791683 0.0669777 4 1 0
0.00239937 0.0786724 0.0675197 4 1 0
0.00229164 0.0781536 0.0680736 4 1 0
0.00214272 0.0776371 0.0686024 4 1 0
0.00196763 0.0772472 0.0689328 4 1 0
0.00190961 0.0772653 0.0687836 4 1 0
0.00188799 0.0773492 0.0685646 4 1 0
0.00187596 0.0774198 0.0683645 4 1 0
0.00186689 0.0774609 0.0681881 4 1 0
0.00185918 0.0774426 0.0680664 4 1 0
0.00184835 0.0772299 0.0680831 4 1 0
0.001832 0.0765755 0.0685696 4 1 0
0.00182251 0.0762388 0.06888 4 1 0
0.00181005 0.0762511 0.0691859 4 1 0
0.00178525 0.0762989 0.0695294 4 1 0
0.00170909 0.0762541 0.0698913 4 1 0
0.00153096 0.0759519 0.0702737 4 1 0
0.00138147 0.0756862 0.0706141 4 1 0
0.00118687 0.0752521 0.0709755 4 1 0
0.00101898 0.0749392 0.0712812 4 1 0
0.00084108 0.0746098 0.0716039 4 1 0
0.000640294 0.0742432 0.0719648 4 1 0
0.000439644 0.0738817 0.072322 4 1 0
0.000239155 0.0735241 0.0726768 4 1 0
3.87664e-05 0.0731711 0.0730291 4 1 0
3.83984e-05 0.0731705 0.0730297 4 1 0
-0.000161605 0.0733866 0.0728137 4 1 0
0.004 0.432042 0.00137408 4 1 0
0.0039931 0.427533 0.00156671 3 1 0
0.00412783 0.399329 0.00207141 3 1 0
0.00412917 0.399105 0.00207662 3 1 0
0.0041316 0.398612 0.00208686 3 1 0
0.00413644 0.397627 0.00210749 3 1 0
0.00414611 0.395656 0.00214932 3 1 0
0.0041606 0.3927 0.00221361 3 1 0
0.00417515 0.389763 0.00227974 3 1 0
0.00418974 0.386834 0.00234784 3 1 0
0.00420436 0.383907 0.0024178 3 1 0
0.00421899 0.380998 0.00248947 3 1 0
0.00423364 0.378099 0.0025631 3 1 0
0.00424831 0.3752 0.00263891 3 1 0
0.00426299 0.372327 0.0027168 3 1 0
0.00427768 0.369452 0.00279647 3 1 0
0.00429238 0.366599 0.00287846 3 1 0
0.0043071 0.363745 0.00296267 3 1 0
0.00432182 0.360914 0.00304927 3 1 0
0.00433654 0.35808 0.00313782 3 1 0
0.00435128 0.355274 0.00322871 3 1 0
0.00436601 0.352465 0.00332208 3 1 0
0.00438075 0.349681 0.0034179 3 1 0
0.00439549 0.346901 0.00351614 3 1 0
0.00441023 0.344136 0.00361649 3 1 0
0.00442497 0.341376 0.00371964 3 1 0
0.0044397 0.338639 0.00382542 3 1 0
0.00445443 0.335907 0.00393396 3 1 0
0.00446916 0.33319 0.00404489 3 1 0
0.00448387 0.330487 0.00415858 3 1 0
0.00449858 0.327792 0.00427518 3 1 0
0.00451328 0.325115 0.00439465 3 1 0
0.00452797 0.322442 0.00451691 3 1 0
0.00454264 0.319794 0.00464175 3 1 0
0.0045573 0.317148 0.00476977 3 1 0
0.00457195 0.314526 0.00490084 3 1 0
0.00458658 0.311907 0.00503498 3 1 0
0.00460119 0.309309 0.00517215 3 1 0
0.00461579 0.306716 0.00531252 3 1 0
0.00463036 0.304145 0.00545627 3 1 0
0.00464491 0.301579 0.00560322 3 1 0
0.00465944 0.299034 0.00575314 3 1 0
0.00467395 0.296499 0.00590658 3 1 0
0.00468843 0.293977 0.0060636 3 1 0
0.00470288 0.291467 0.00622369 3 1 0
0.00471731 0.288973 0.00638727 3 1 0
0.00473171 0.286493 0.00655466 3 1 0
0.00474608 0.284027 0.00672571 3 1 0
0.00476042 0.281569 0.00689991 3 1 0
0.00477473 0.279132 0.00707815 3 1 0
0.004789 0.276706 0.0072602 3 1 0
0.00480325 0.274294 0.00744571 3 1 0
0.00481745 0.271894 0.00763525 3 1 0
0.00483163 0.269508 0.00782873 3 1 0
0.00484576 0.267139 0.008026 3 1 0
0.00485986 0.264777 0.00822722 3 1 0
0.00487392 0.262438 0.00843254 3 1 0
0.00488795 0.260107 0.00864207 3 1 0
0.00490193 0.257791 0.0088554 3 1 0
0.00491587 0.255486 0.00907297 3 1 0
0.00492978 0.253197 0.009295 3 1 0
0.00494364 0.250926 0.00952093 3 1 0
0.00495746 0.248664 0.00975125 3 1 0
0.00497123 0.246416 0.0099864 3 1 0
0.00498497 0.244185 0.0102253 3 1 0
0.00499865 0.241966 0.0104687 3 1 0
0.0050123 0.239761 0.010717 3 1 0
0.0050259 0.237566 0.0109694 3 1 0
0.00503945 0.235391 0.0112263 3 1 0
0.00505296 0.233227 0.011488 3 1 0
0.00506642 0.231077 0.0117546 3 1 0
0.00507984 0.228937 0.0120256 3 1 0
0.00509321 0.226816 0.012301 3 1 0
0.00510654 0.224709 0.0125817 3 1 0
0.00511982 0.222612 0.0128673 3 1 0
0.00513305 0.220529 0.0131572 3 1 0
0.00514624 0.218464 0.0134523 3 1 0
0.00515937 0.216409 0.0137524 3 1 0
0.00517247 0.214366 0.0140577 3 1 0
0.00518552 0.212341 0.0143676 3 1 0
0.00519852 0.210327 0.0146827 3 1 0
0.00521148 0.208326 0.015003 3 1 0
0.00522439 0.206341 0.0153287 3 1 0
0.00523726 0.204365 0.0156594 3 1 0
0.00525008 0.202404 0.0159947 3 1 0
0.00526286 0.20046 0.0163358 3 1 0
0.0052756 0.198527 0.0166824 3 1 0
0.0052883 0.196606 0.0170343 3 1 0
0.00530096 0.194699 0.0173911 3 1 0
0.00531358 0.192807 0.0177535 3 1 0
0.00532616 0.190925 0.0181214 3 1 0
0.00533871 0.189059 0.018495 3 1 0
0.00535122 0.187203 0.0188742 3 1 0
0.00535123 0.187203 0.0188745 4 1 0
0.00536371 0.18536 0.0192587 4 1 0
0.00537615 0.183533 0.0196487 4 1 0
0.00538856 0.181718 0.0200445 4 1 0
0.00540094 0.179915 0.0204461 4 1 0
0.0054133 0.178124 0.0208534 4 1 0
0.00542564 0.176348 0.0212658 4 1 0
0.00543795 0.174585 0.0216843 4 1 0
0.00545024 0.172832 0.0221087 4 1 0
0.00546252 0.171093 0.022539 4 1 0
0.00547478 0.169368 0.0229754 4 1 0
0.00548704 0.167654 0.0234174 4 1 0
0.00549928 0.165951 0.0238651 4 1 0
0.00551152 0.164263 0.0243188 4 1 0
0.00552377 0.162587 0.0247788 4 1 0
0.00553602 0.160922 0.0252448 4 1 0
0.00554827 0.15927 0.025717 4 1 0
0.00556054 0.157629 0.0261955 4 1 0
0.00557283 0.156002 0.0266795 4 1 0
0.00558515 0.154386 0.02717 4 1 0
0.00559749 0.152781 0.0276664 4 1 0
0.00560987 0.151189 0.0281695 4 1 0
0.0056223 0.14961 0.0286787 4 1 0
0.00563477 0.148041 0.0291939 4 1 0
0.0056473 0.146484 0.0297161 4 1 0
0.0056599 0.144939 0.0302441 4 1 0
0.00567257 0.143406 0.0307785 4 1 0
0.00568533 0.141884 0.0313198 4 1 0
0.00569818 0.140372 0.0318674 4 1 0
0.00571114 0.138874 0.0324212 4 1 0
0.00572422 0.137386 0.0329819 4 1 0
0.00573742 0.135909 0.0335489 4 1 0
0.00575078 0.134443 0.0341226 4 1 0
0.00576429 0.132989 0.0347031 4 1 0
0.00577798 0.131545 0.0352904 4 1 0
0.00579186 0.130114 0.0358845 4 1 0
0.00580595 0.128691 0.0364853 4 1 0
0.00582028 0.127282 0.0370929 4 1 0
0.00583486 0.125882 0.0377071 4 1 0
0.00584973 0.124493 0.0383284 4 1 0
0.00586491 0.123114 0.0389565 4 1 0
0.00588042 0.121746 0.0395917 4 1 0
0.00589631 0.120388 0.0402342 4 1 0
0.0059126 0.119041 0.0408835 4 1 0
0.00592934 0.117704 0.0415399 4 1 0
0.00594658 0.116377 0.0422036 4 1 0
0.00596435 0.115061 0.0428746 4 1 0
0.00598272 0.113754 0.0435529 4 1 0
0.00600175 0.112458 0.0442385 4 1 0
0.00602149 0.111172 0.0449317 4 1 0
0.00604204 0.109895 0.0456324 4 1 0
0.00606347 0.108628 0.0463404 4 1 0
0.00608589 0.10737 0.0470559 4 1 0
0.00610939 0.106122 0.0477792 4 1 0
0.00613411 0.104884 0.0485103 4 1 0
0.00616019 0.103655 0.0492492 4 1 0
0.00618778 0.102435 0.0499961 4 1 0
0.00621709 0.101224 0.0507511 4 1 0
0.00624832 0.100022 0.0515142 4 1 0
0.00628174 0.0988296 0.0522855 4 1 0
0.00631764 0.0976454 0.0530653 4 1 0
0.00635637 0.09647 0.0538536 4 1 0
0.00639837 0.0953024 0.0546505 4 1 0
0.00644413 0.0941441 0.0554564 4 1 0
0.00649427 0.0929932 0.056271 4 1 0
0.00654954 0.0918508 0.0570949 4 1 0
0.00661087 0.0907159 0.0579281 4 1 0
0.00667941 0.0895883 0.058771 4 1 0
0.00675664 0.0884683 0.0596238 4 1 0
0.00684446 0.0873554 0.0604868 4 1 0
0.00694533 0.0862491 0.0613603 4 1 0
0.00706256 0.0851492 0.0622448 4 1 0
0.00720067 0.0840556 0.0631404 4 1 0
0.00736595 0.0829679 0.0640478 4 1 0
0.0075675 0.0818858 0.0649672 4 1 0
0.00781884 0.0808096 0.0658985 4 1 0
0.00814094 0.0797403 0.0668413 4 1 0
0.00856764 0.07868 0.0677933 4 1 0
0.00915607 0.0776354 0.0687486 4 1 0
0.010006 0.0766215 0.0696929 4 1 0
0.0112935 0.0756693 0.0705952 4 1 0
