0.00382094 0.479842 0.000927434 3 1 0
0.00382033 0.479917 0.00092684 3 1 0
0.00381974 0.479985 0.000926321 3 1 0
0.00381919 0.480043 0.000925883 3 1 0
0.00381867 0.480096 0.000925526 3 1 0
0.00381818 0.480135 0.000925255 3 1 0
0.00381774 0.480165 0.000925069 3 1 0
0.00381732 0.480192 0.000924971 3 1 0
0.00381694 0.480204 0.000924957 3 1 0
0.0038166 0.480206 0.00092503 3 1 0
0.0038163 0.480197 0.000925183 3 1 0
0.00381603 0.48018 0.000925431 3 1 0
0.0038158 0.480153 0.000925768 3 1 0
0.00381561 0.480121 0.0009262 3 1 0
0.00381546 0.480075 0.000926717 3 1 0
0.00381534 0.480018 0.000927324 3 1 0
0.00381527 0.479951 0.000928037 3 1 0
0.00381523 0.479874 0.000928827 3 1 0
0.00381523 0.479788 0.000929707 3 1 0
0.00381527 0.479687 0.000930677 3 1 0
0.00381535 0.479581 0.000931739 3 1 0
0.00381547 0.479465 0.000932893 3 1 0
0.00381563 0.479343 0.000934127 3 1 0
0.00381582 0.479208 0.000935462 3 1 0
0.00381606 0.479063 0.000936887 3 1 0
0.00381633 0.478907 0.000938468 3 1 0
0.00381664 0.478743 0.000940074 3 1 0
0.00381699 0.47857 0.000941768 3 1 0
0.00381737 0.478389 0.0009436 3 1 0
0.0038178 0.478197 0.00094547 3 1 0
0.00381826 0.477996 0.000947427 3 1 0
0.00381875 0.477785 0.000949434 3 1 0
0.00381928 0.477567 0.000951556 3 1 0
0.00381985 0.47734 0.000953763 3 1 0
0.00382045 0.477105 0.000956028 3 1 0
0.00382109 0.476861 0.000958401 3 1 0
0.00382176 0.476609 0.000960854 3 1 0
0.00382246 0.476347 0.000963369 3 1 0
0.0038232 0.476079 0.000965982 3 1 0
0.00382396 0.475804 0.000968673 3 1 0
0.00382476 0.475519 0.000971426 3 1 0
0.00382559 0.475229 0.00097427 3 1 0
0.00382645 0.474932 0.000977188 3 1 0
0.00382734 0.474625 0.00098017 3 1 0
0.00382826 0.474316 0.000983234 3 1 0
0.0038292 0.474001 0.000986369 3 1 0
0.00383017 0.47368 0.000989575 3 1 0
0.00383117 0.473353 0.000992849 3 1 0
0.0038322 0.47302 0.000996191 3 1 0
0.00383325 0.472682 0.000999578 3 1 0
0.00383433 0.472338 0.00100305 3 1 0
0.00383432 0.472337 0.00100306 3 1 0
0.00383542 0.471985 0.00100659 3 1 0
0.00383655 0.47163 0.00101019 3 1 0
0.0038377 0.471271 0.00101386 3 1 0
0.00383887 0.470901 0.00101757 3 1 0
0.00384006 0.470532 0.00102136 3 1 0
0.00384127 0.470159 0.00102521 3 1 0
0.00384251 0.469779 0.00102911 3 1 0
0.00384376 0.469396 0.00103307 3 1 0
0.00384504 0.469009 0.00103709 3 1 0
0.00384633 0.468617 0.00104116 3 1 0
0.00384764 0.468222 0.00104529 3 1 0
0.00384897 0.467824 0.00104948 3 1 0
0.00385032 0.467422 0.00105371 3 1 0
0.00385169 0.467016 0.00105801 3 1 0
0.00385307 0.466606 0.00106235 3 1 0
0.00385447 0.466192 0.00106675 3 1 0
0.00385588 0.465776 0.0010712 3 1 0
0.00385731 0.465357 0.00107569 3 1 0
0.00385876 0.464933 0.00108024 3 1 0
0.00386022 0.464509 0.00108484 3 1 0
0.0038617 0.464081 0.00108948 3 1 0
0.00386318 0.463649 0.00109418 3 1 0
0.00386469 0.463217 0.00109892 3 1 0
0.0038662 0.462782 0.00110371 3 1 0
0.00386773 0.462343 0.00110854 3 1 0
0.00386927 0.461904 0.00111342 3 1 0
0.00387083 0.461462 0.00111835 3 1 0
0.00387239 0.461012 0.00112333 3 1 0
0.00387397 0.460567 0.00112834 3 1 0
0.00387556 0.46012 0.00113341 3 1 0
0.00387716 0.459665 0.00113851 3 1 0
0.00387877 0.459214 0.00114366 3 1 0
0.00388039 0.458761 0.00114886 3 1 0
0.00388202 0.458303 0.00115409 3 1 0
0.00388367 0.457847 0.00115937 3 1 0
0.00388532 0.457389 0.00116469 3 1 0
0.00388698 0.456921 0.00117006 3 1 0
0.00388865 0.456461 0.00117547 3 1 0
0.00389033 0.456 0.00118092 3 1 0
0.00389202 0.455529 0.0011864 3 1 0
0.00389372 0.455065 0.00119194 3 1 0
0.00389542 0.4546 0.00119751 3 1 0
0.00389714 0.454132 0.00120312 3 1 0
0.00389886 0.45366 0.00120878 3 1 0
0.00390059 0.453187 0.00121447 3 1 0
0.00390233 0.452724 0.00122021 3 1 0
0.00390407 0.452249 0.00122598 3 1 0
0.00390583 0.451774 0.0012318 3 1 0
0.00390759 0.451303 0.00123766 3 1 0
0.00390936 0.450826 0.00124355 3 1 0
0.00391113 0.450348 0.00124949 3 1 0
0.00391291 0.449871 0.00125547 3 1 0
0.0039147 0.449391 0.00126148 3 1 0
0.00391649 0.448911 0.00126754 3 1 0
0.00391829 0.448432 0.00127363 3 1 0
0.0039201 0.44795 0.00127974 3 1 0
0.00392192 0.447468 0.0012859 3 1 0
0.00392373 0.446987 0.00129207 3 1 0
0.00392556 0.446503 0.0012983 3 1 0
0.00392739 0.446018 0.00130457 3 1 0
0.00392923 0.445537 0.00131086 3 1 0
0.00393107 0.445052 0.00131721 3 1 0
0.00393292 0.444566 0.0013236 3 1 0
0.00393477 0.44408 0.00133 3 1 0
0.00393663 0.443594 0.00133647 3 1 0
0.00393849 0.443106 0.00134297 3 1 0
0.00394036 0.44262 0.0013495 3 1 0
0.00394223 0.442132 0.00135608 3 1 0
0.00394411 0.441643 0.0013627 3 1 0
0.00394599 0.441155 0.00136935 3 1 0
0.00394788 0.440666 0.00137604 3 1 0
0.00394977 0.440176 0.00138278 3 1 0
0.00395167 0.439684 0.0013897 3 1 0
0.00395357 0.439195 0.00139652 3 1 0
0.00395547 0.438706 0.00140338 3 1 0
0.00395738 0.438214 0.00141011 3 1 0
0.00395929 0.437724 0.00141703 3 1 0
0.00396121 0.437234 0.001424 3 1 0
0.00396313 0.43674 0.001431 3 1 0
0.00396506 0.43625 0.00143804 3 1 0
0.00396698 0.435759 0.00144512 3 1 0
0.00396892 0.435263 0.00145224 3 1 0
0.00397085 0.434773 0.00145939 3 1 0
0.00397279 0.434282 0.00146659 3 1 0
0.00397474 0.433785 0.00147382 3 1 0
0.00397668 0.433294 0.00148109 3 1 0
0.00397863 0.432803 0.0014884 3 1 0
0.00398059 0.432311 0.00149574 3 1 0
0.00398255 0.431819 0.00150313 3 1 0
0.00398451 0.431326 0.00151055 3 1 0
0.00398647 0.430833 0.00151801 3 1 0
0.00398844 0.43034 0.00152552 3 1 0
0.00399041 0.429847 0.00153306 3 1 0
0.00399238 0.429354 0.00154064 3 1 0
0.00399436 0.42886 0.00154825 3 1 0
0.00399634 0.428366 0.00155591 3 1 0
0.00399832 0.427874 0.00156361 3 1 0
0.0040003 0.42738 0.00157134 3 1 0
0.00400229 0.426886 0.00157912 3 1 0
0.00400428 0.426393 0.00158693 3 1 0
0.00400628 0.4259 0.00159478 3 1 0
0.00400827 0.425407 0.00160268 3 1 0
0.00401027 0.424912 0.00161061 3 1 0
0.00401227 0.424419 0.00161858 3 1 0
0.00401428 0.423927 0.00162659 3 1 0
0.00401628 0.423431 0.00163464 3 1 0
0.00401829 0.422939 0.00164274 3 1 0
0.00402031 0.422447 0.00165087 3 1 0
0.00402232 0.421954 0.00165904 3 1 0
0.00402434 0.421461 0.00166725 3 1 0
0.00402635 0.420969 0.00167551 3 1 0
0.00402838 0.420476 0.00168381 3 1 0
0.0040304 0.419984 0.00169215 3 1 0
0.00403243 0.419491 0.00170052 3 1 0
0.00403445 0.418996 0.00170895 3 1 0
0.00403648 0.418505 0.00171741 3 1 0
0.00403852 0.418014 0.00172591 3 1 0
0.00404055 0.417519 0.00173448 3 1 0
0.00404259 0.417028 0.00174306 3 1 0
0.00404463 0.416538 0.00175168 3 1 0
0.00404667 0.416042 0.00176029 3 1 0
0.00404871 0.415553 0.00176897 3 1 0
0.00405076 0.415063 0.00177769 3 1 0
0.0040528 0.414564 0.00178639 3 1 0
0.00405485 0.414072 0.0017952 3 1 0
0.0040569 0.413584 0.00180404 3 1 0
0.00405895 0.413097 0.00181287 3 1 0
0.00406101 0.412605 0.0018218 3 1 0
0.00406306 0.412113 0.00183078 3 1 0
0.00406512 0.411627 0.00183983 3 1 0
0.00406718 0.411135 0.00184889 3 1 0
0.00406924 0.410643 0.00185799 3 1 0
0.00407131 0.410158 0.00186716 3 1 0
0.00407337 0.409667 0.00187634 3 1 0
0.00407544 0.409176 0.00188557 3 1 0
0.00407751 0.40869 0.00189486 3 1 0
0.00407958 0.408199 0.00190417 3 1 0
0.00408165 0.407708 0.00191352 3 1 0
0.00408372 0.407224 0.00192294 3 1 0
0.0040858 0.406734 0.00193238 3 1 0
0.00408787 0.406244 0.00194186 3 1 0
0.00408995 0.405763 0.0019514 3 1 0
0.00409203 0.405274 0.00196096 3 1 0
0.00409411 0.404785 0.00197057 3 1 0
0.00409619 0.404303 0.00198023 3 1 0
0.00409828 0.403814 0.00198993 3 1 0
0.00410036 0.403326 0.00199967 3 1 0
0.00410245 0.402847 0.00200946 3 1 0
0.00410454 0.40236 0.00201929 3 1 0
0.00410663 0.401872 0.00202916 3 1 0
0.00410872 0.401386 0.00203909 3 1 0
0.00411081 0.400899 0.00204905 3 1 0
0.0041129 0.400413 0.00205905 3 1 0
0.004115 0.399934 0.00206911 3 1 0
0.00411709 0.399448 0.0020792 3 1 0
0.00411919 0.398962 0.00208935 3 1 0
0.00412129 0.398481 0.00209953 3 1 0
0.00412339 0.397995 0.00210977 3 1 0
0.00412549 0.397512 0.00212004 3 1 0
0.00412759 0.397033 0.00213037 3 1 0
0.00412969 0.396549 0.00214074 3 1 0
0.0041318 0.396064 0.00215115 3 1 0
0.0041339 0.395586 0.00216162 3 1 0
0.00413601 0.395102 0.00217213 3 1 0
0.00413812 0.394621 0.00218268 3 1 0
0.00414022 0.39414 0.00219329 3 1 0
0.00414233 0.393661 0.00220394 3 1 0
0.00414445 0.393183 0.00221463 3 1 0
0.00414656 0.392702 0.00222539 3 1 0
0.00414867 0.39222 0.00223618 3 1 0
0.00415078 0.39174 0.00224702 3 1 0
0.0041529 0.391265 0.00225794 3 1 0
0.00415502 0.390784 0.00226887 3 1 0
0.00415713 0.390303 0.00227986 3 1 0
0.00415925 0.389835 0.00229097 3 1 0
0.00416137 0.389356 0.00230205 3 1 0
0.00416349 0.388877 0.00231318 3 1 0
0.00416561 0.388402 0.00232417 3 1 0
0.00416773 0.387925 0.00233537 3 1 0
0.00416985 0.387447 0.00234661 3 1 0
0.00417198 0.386965 0.00235808 3 1 0
0.0041741 0.386487 0.00236942 3 1 0
0.00417623 0.386013 0.0023808 3 1 0
0.00417835 0.385542 0.00239232 3 1 0
0.00418048 0.385065 0.0024038 3 1 0
0.00418261 0.384588 0.00241533 3 1 0
0.00418474 0.384116 0.00242697 3 1 0
0.00418687 0.38364 0.0024386 3 1 0
0.004189 0.383164 0.00245028 3 1 0
0.00419113 0.382694 0.00246205 3 1 0
0.00419326 0.382223 0.00247383 3 1 0
0.00419539 0.381752 0.00248566 3 1 0
0.00419753 0.381276 0.00249757 3 1 0
0.00419966 0.380806 0.0025095 3 1 0
0.00420179 0.380336 0.00252147 3 1 0
0.00420393 0.379859 0.00253352 3 1 0
0.00420607 0.37939 0.00254559 3 1 0
0.0042082 0.378922 0.00255772 3 1 0
0.00421034 0.378447 0.00256991 3 1 0
0.00421248 0.377979 0.00258213 3 1 0
0.00421462 0.377511 0.00259441 3 1 0
0.00421676 0.377039 0.00260675 3 1 0
0.0042189 0.376569 0.00261913 3 1 0
0.00422104 0.376103 0.00263156 3 1 0
0.00422318 0.375636 0.00264405 3 1 0
0.00422532 0.375166 0.00265659 3 1 0
0.00422746 0.374697 0.00266918 3 1 0
0.00422961 0.374233 0.00268182 3 1 0
0.00423175 0.373764 0.00269451 3 1 0
0.00423389 0.373298 0.00270726 3 1 0
0.00423604 0.372832 0.00272005 3 1 0
0.00423818 0.372364 0.00273291 3 1 0
0.00424033 0.371901 0.00274582 3 1 0
0.00424248 0.371437 0.00275877 3 1 0
0.00424462 0.37097 0.00277179 3 1 0
0.00424677 0.370506 0.00278486 3 1 0
0.00424892 0.370045 0.00279797 3 1 0
0.00425107 0.369579 0.00281115 3 1 0
0.00425321 0.369114 0.00282438 3 1 0
0.00425536 0.368655 0.00283767 3 1 0
0.00425751 0.36819 0.00285102 3 1 0
0.00425966 0.367727 0.00286442 3 1 0
0.00426181 0.367269 0.0028779 3 1 0
0.00426397 0.366805 0.00289141 3 1 0
0.00426612 0.366342 0.00290498 3 1 0
0.00426827 0.365884 0.0029187 3 1 0
0.00427042 0.365421 0.00293236 3 1 0
0.00427257 0.364962 0.00294606 3 1 0
0.00427473 0.364507 0.00295981 3 1 0
0.00427688 0.364049 0.00297366 3 1 0
0.00427903 0.363591 0.00298757 3 1 0
0.00428119 0.36313 0.00300146 3 1 0
0.00428334 0.362673 0.00301548 3 1 0
0.0042855 0.362216 0.00302955 3 1 0
0.00428765 0.361755 0.00304364 3 1 0
0.00428981 0.361299 0.00305782 3 1 0
0.00429196 0.360844 0.00307206 3 1 0
0.00429412 0.360386 0.00308631 3 1 0
0.00429628 0.359931 0.00310066 3 1 0
0.00429843 0.359476 0.00311507 3 1 0
0.00430059 0.35902 0.00312949 3 1 0
0.00430275 0.358566 0.00314401 3 1 0
0.0043049 0.358112 0.00315859 3 1 0
0.00430706 0.357657 0.00317319 3 1 0
0.00430922 0.357204 0.00318788 3 1 0
0.00431138 0.35675 0.00320263 3 1 0
0.00431354 0.356297 0.00321742 3 1 0
0.0043157 0.355844 0.00323229 3 1 0
0.00431785 0.355392 0.00324722 3 1 0
0.00432001 0.35494 0.00326218 3 1 0
0.00432217 0.354488 0.00327723 3 1 0
0.00432433 0.354037 0.00329233 3 1 0
0.00432649 0.353586 0.00330748 3 1 0
0.00432865 0.353135 0.00332271 3 1 0
0.00433081 0.352685 0.003338 3 1 0
0.00433297 0.352235 0.00335334 3 1 0
0.00433513 0.351785 0.00336875 3 1 0
0.00433729 0.351335 0.00338422 3 1 0
0.00433945 0.350884 0.00339969 3 1 0
0.00434161 0.350434 0.00341528 3 1 0
0.00434378 0.349984 0.00343093 3 1 0
0.00434594 0.349544 0.00344659 3 1 0
0.0043481 0.349097 0.00346236 3 1 0
0.00435026 0.348649 0.00347819 3 1 0
0.00435242 0.348203 0.00349406 3 1 0
0.00435458 0.347756 0.00351002 3 1 0
0.00435674 0.347309 0.00352604 3 1 0
0.0043589 0.346866 0.00354205 3 1 0
0.00436107 0.346421 0.00355814 3 1 0
0.00436323 0.345976 0.0035743 3 1 0
0.00436539 0.345532 0.00359046 3 1 0
0.00436755 0.345088 0.00360674 3 1 0
0.00436971 0.344645 0.00362309 3 1 0
0.00437187 0.344202 0.00363945 3 1 0
0.00437404 0.343759 0.00365592 3 1 0
0.0043762 0.343316 0.00367246 3 1 0
0.00437836 0.342874 0.00368911 3 1 0
0.00438052 0.342432 0.00370577 3 1 0
0.00438268 0.34199 0.0037225 3 1 0
0.00438485 0.34155 0.00373931 3 1 0
0.00438701 0.34111 0.00375616 3 1 0
0.00438917 0.34067 0.00377308 3 1 0
0.00439133 0.340228 0.00379004 3 1 0
0.00439349 0.33979 0.00380709 3 1 0
0.00439565 0.339351 0.00382421 3 1 0
0.00439782 0.338911 0.00384141 3 1 0
0.00439998 0.338473 0.00385866 3 1 0
0.00440214 0.338036 0.00387597 3 1 0
0.0044043 0.337599 0.00389338 3 1 0
0.00440646 0.337162 0.00391082 3 1 0
0.00440862 0.336724 0.00392832 3 1 0
0.00441078 0.336288 0.00394593 3 1 0
0.00441294 0.335851 0.00396356 3 1 0
0.00441511 0.335414 0.00398126 3 1 0
0.00441727 0.334979 0.00399904 3 1 0
0.00441943 0.334543 0.00401687 3 1 0
0.00442159 0.334107 0.00403477 3 1 0
0.00442375 0.333675 0.00405275 3 1 0
0.00442591 0.333239 0.00407079 3 1 0
0.00442807 0.332804 0.00408889 3 1 0
0.00443023 0.332375 0.00410706 3 1 0
0.00443239 0.331941 0.0041253 3 1 0
0.00443455 0.331507 0.00414361 3 1 0
0.00443671 0.33108 0.00416201 3 1 0
0.00443886 0.330648 0.00418046 3 1 0
0.00444102 0.330216 0.00419899 3 1 0
0.00444318 0.329786 0.00421754 3 1 0
0.00444534 0.329354 0.0042362 3 1 0
0.0044475 0.328923 0.00425492 3 1 0
0.00444966 0.328496 0.00427371 3 1 0
0.00445182 0.328067 0.00429257 3 1 0
0.00445397 0.327637 0.00431151 3 1 0
0.00445613 0.327209 0.00433051 3 1 0
0.00445829 0.326781 0.00434959 3 1 0
0.00446044 0.326353 0.00436874 3 1 0
0.0044626 0.325924 0.00438794 3 1 0
0.00446476 0.325496 0.00440723 3 1 0
0.00446691 0.325068 0.00442659 3 1 0
0.00446907 0.324641 0.00444593 3 1 0
0.00447122 0.324213 0.00446542 3 1 0
0.00447338 0.323787 0.00448498 3 1 0
0.00447553 0.323363 0.00450462 3 1 0
0.00447769 0.32294 0.00452431 3 1 0
0.00447984 0.322517 0.00454408 3 1 0
0.004482 0.322092 0.00456395 3 1 0
0.00448415 0.321669 0.00458386 3 1 0
0.0044863 0.321247 0.00460384 3 1 0
0.00448846 0.320819 0.00462393 3 1 0
0.00449061 0.320398 0.00464405 3 1 0
0.00449276 0.319977 0.00466424 3 1 0
0.00449491 0.319552 0.00468455 3 1 0
0.00449706 0.319132 0.00470489 3 1 0
0.00449921 0.318712 0.0047253 3 1 0
0.00450136 0.318287 0.00474583 3 1 0
0.00450352 0.317869 0.00476639 3 1 0
0.00450567 0.31745 0.00478702 3 1 0
0.00450781 0.317027 0.00480777 4 1 0
0.00450996 0.316609 0.00482854 4 1 0
0.00451211 0.316192 0.00484939 4 1 0
0.00451426 0.31577 0.00487037 4 1 0
0.00451641 0.315353 0.00489136 4 1 0
0.00451856 0.314937 0.00491244 4 1 0
0.0045207 0.314517 0.00493363 4 1 0
0.00452285 0.3141 0.00495485 4 1 0
0.00452499 0.313685 0.00497615 4 1 0
0.00452714 0.313268 0.00499756 4 1 0
0.00452928 0.31285 0.00501901 4 1 0
0.00453143 0.312436 0.00504054 4 1 0
0.00453357 0.312021 0.00506218 4 1 0
0.00453572 0.311604 0.00508386 4 1 0
0.00453786 0.311191 0.00510562 4 1 0
0.00454 0.310777 0.00512748 4 1 0
0.00454214 0.310362 0.00514939 4 1 0
0.00454429 0.30995 0.00517138 4 1 0
0.00454643 0.309538 0.00519346 4 1 0
0.00454857 0.309123 0.0052156 4 1 0
0.00455071 0.308711 0.00523782 4 1 0
0.00455285 0.308301 0.00526011 4 1 0
0.00455499 0.307888 0.00528251 4 1 0
0.00455712 0.307476 0.00530498 4 1 0
0.00455926 0.307066 0.00532755 4 1 0
0.0045614 0.306655 0.00535016 4 1 0
0.00456354 0.306246 0.00537286 4 1 0
0.00456567 0.305836 0.00539568 4 1 0
0.00456781 0.305425 0.00541852 4 1 0
0.00456994 0.305017 0.00544145 4 1 0
0.00457208 0.304608 0.00546451 4 1 0
0.00457421 0.3042 0.00548759 4 1 0
0.00457634 0.303793 0.00551076 4 1 0
0.00457847 0.303386 0.00553406 4 1 0
0.00458061 0.30298 0.00555738 4 1 0
0.00458274 0.302574 0.00558079 4 1 0
0.00458487 0.302168 0.00560433 4 1 0
0.004587 0.301762 0.00562789 4 1 0
0.00458913 0.301357 0.00565154 4 1 0
0.00459126 0.300951 0.00567532 4 1 0
0.00459338 0.300547 0.00569913 4 1 0
0.00459551 0.300142 0.00572302 4 1 0
0.00459764 0.299737 0.00574704 4 1 0
0.00459976 0.299334 0.00577109 4 1 0
0.00460189 0.298931 0.00579523 4 1 0
0.00460401 0.298527 0.00581951 4 1 0
0.00460614 0.298124 0.00584381 4 1 0
0.00460826 0.297722 0.00586819 4 1 0
0.00461038 0.29732 0.00589271 4 1 0
0.0046125 0.296918 0.00591726 4 1 0
0.00461462 0.296517 0.0059419 4 1 0
0.00461674 0.296115 0.00596667 4 1 0
0.00461886 0.295714 0.00599147 4 1 0
0.00462098 0.295313 0.00601635 4 1 0
0.0046231 0.294915 0.00604137 4 1 0
0.00462522 0.294515 0.00606642 4 1 0
0.00462733 0.294115 0.00609156 4 1 0
0.00462945 0.293717 0.00611683 4 1 0
0.00463156 0.293318 0.00614214 4 1 0
0.00463368 0.29292 0.00616753 4 1 0
0.00463579 0.292522 0.00619306 4 1 0
0.0046379 0.292125 0.00621862 4 1 0
0.00464001 0.291728 0.00624427 4 1 0
0.00464212 0.291329 0.00627005 4 1 0
0.00464423 0.290933 0.00629588 4 1 0
0.00464634 0.290538 0.00632179 4 1 0
0.00464845 0.290142 0.00634782 4 1 0
0.00465056 0.289747 0.00637391 4 1 0
0.00465266 0.289352 0.00640008 4 1 0
0.00465477 0.288957 0.00642638 4 1 0
0.00465687 0.288563 0.00645273 4 1 0
0.00465898 0.28817 0.00647917 4 1 0
0.00466108 0.287775 0.00650572 4 1 0
0.00466318 0.287383 0.00653234 4 1 0
0.00466528 0.28699 0.00655904 4 1 0
0.00466738 0.286596 0.00658586 4 1 0
0.00466948 0.286205 0.00661274 4 1 0
0.00467158 0.285814 0.00663972 4 1 0
0.00467368 0.285422 0.00666681 4 1 0
0.00467577 0.285031 0.00669396 4 1 0
0.00467787 0.284641 0.0067212 4 1 0
0.00467996 0.284249 0.00674855 4 1 0
0.00468206 0.28386 0.00677597 4 1 0
0.00468415 0.283471 0.00680348 4 1 0
0.00468624 0.28308 0.00683111 4 1 0
0.00468833 0.282692 0.0068588 4 1 0
0.00469042 0.282304 0.00688659 4 1 0
0.00469251 0.281915 0.00691448 4 1 0
0.0046946 0.281527 0.00694245 4 1 0
0.00469668 0.28114 0.00697051 4 1 0
0.00469877 0.280752 0.00699867 4 1 0
0.00470085 0.280366 0.00702692 4 1 0
0.00470294 0.27998 0.00705526 4 1 0
0.00470502 0.279593 0.00708369 4 1 0
0.0047071 0.279208 0.00711222 4 1 0
0.00470918 0.278823 0.00714084 4 1 0
0.00471126 0.278436 0.00716955 4 1 0
0.00471334 0.278052 0.00719836 4 1 0
0.00471542 0.277668 0.00722726 4 1 0
0.00471749 0.277281 0.00725625 4 1 0
0.00471957 0.276898 0.00728534 4 1 0
0.00472164 0.276516 0.00731452 4 1 0
0.00472371 0.276133 0.0073438 4 1 0
0.00472579 0.275751 0.00737317 4 1 0
0.00472786 0.275369 0.00740264 4 1 0
0.00472993 0.274986 0.00743219 4 1 0
0.00473199 0.274605 0.00746185 4 1 0
0.00473406 0.274224 0.00749161 4 1 0
0.00473613 0.273842 0.00752145 4 1 0
0.00473819 0.273462 0.0075514 4 1 0
0.00474026 0.273083 0.00758145 4 1 0
0.00474232 0.272703 0.00761157 4 1 0
0.00474438 0.272324 0.00764181 4 1 0
0.00474644 0.271945 0.00767215 4 1 0
0.0047485 0.271566 0.00770256 4 1 0
0.00475056 0.271187 0.00773309 4 1 0
0.00475261 0.270809 0.00776372 4 1 0
0.00475467 0.270432 0.00779443 4 1 0
0.00475672 0.270054 0.00782526 4 1 0
0.00475878 0.269677 0.00785619 4 1 0
0.00476083 0.2693 0.00788718 4 1 0
0.00476288 0.268924 0.00791831 4 1 0
0.00476493 0.268548 0.00794953 4 1 0
0.00476698 0.26817 0.00798083 4 1 0
0.00476902 0.267796 0.00801225 4 1 0
0.00477107 0.267422 0.00804378 4 1 0
0.00477311 0.267043 0.00807537 4 1 0
0.00477515 0.26667 0.00810709 4 1 0
0.0047772 0.266297 0.00813892 4 1 0
0.00477924 0.265921 0.00817081 4 1 0
0.00478128 0.265547 0.00820284 4 1 0
0.00478331 0.265176 0.00823497 4 1 0
0.00478535 0.264804 0.00826715 4 1 0
0.00478738 0.264431 0.00829948 4 1 0
0.00478942 0.264058 0.00833192 4 1 0
0.00479145 0.263689 0.0083644 4 1 0
0.00479348 0.263317 0.00839704 4 1 0
0.00479551 0.262945 0.00842978 4 1 0
0.00479754 0.262578 0.00846257 4 1 0
0.00479956 0.262208 0.00849552 4 1 0
0.00480159 0.261837 0.00852858 4 1 0
0.00480361 0.261469 0.00856168 4 1 0
0.00480564 0.2611 0.00859494 4 1 0
0.00480766 0.260731 0.00862831 4 1 0
0.00480968 0.260362 0.00866172 4 1 0
0.00481169 0.259994 0.00869527 4 1 0
0.00481371 0.259626 0.00872887 4 1 0
0.00481573 0.259259 0.00876263 4 1 0
0.00481774 0.258892 0.00879644 4 1 0
0.00481975 0.258525 0.00883035 4 1 0
0.00482176 0.258158 0.00886443 4 1 0
0.00482377 0.257792 0.00889855 4 1 0
0.00482578 0.257426 0.00893278 4 1 0
0.00482778 0.25706 0.00896718 4 1 0
0.00482979 0.256695 0.00900162 4 1 0
0.00483179 0.256331 0.00903616 4 1 0
0.00483379 0.255965 0.00907088 4 1 0
0.00483579 0.255602 0.00910564 4 1 0
0.00483779 0.255238 0.00914051 4 1 0
0.00483979 0.254873 0.00917553 4 1 0
0.00484178 0.25451 0.00921061 4 1 0
0.00484378 0.254148 0.00924581 4 1 0
0.00484577 0.253784 0.00928114 4 1 0
0.00484776 0.253423 0.00931655 4 1 0
0.00484975 0.253062 0.00935207 4 1 0
0.00485174 0.2527 0.00938772 4 1 0
0.00485372 0.252339 0.00942346 4 1 0
0.00485571 0.251979 0.0094593 4 1 0
0.00485769 0.251617 0.00949528 4 1 0
0.00485967 0.251258 0.00953135 4 1 0
0.00486165 0.250899 0.00956753 4 1 0
0.00486363 0.250536 0.00960384 4 1 0
0.0048656 0.250178 0.00964024 4 1 0
0.00486758 0.24982 0.00967675 4 1 0
0.00486955 0.249462 0.00971338 4 1 0
0.00487152 0.249104 0.00975012 4 1 0
0.00487349 0.248747 0.00978696 4 1 0
0.00487545 0.248388 0.00982392 4 1 0
0.00487742 0.248032 0.00986099 4 1 0
0.00487938 0.247676 0.00989818 4 1 0
0.00488135 0.247318 0.00993547 4 1 0
0.00488331 0.246963 0.00997288 4 1 0
0.00488526 0.246608 0.0100104 4 1 0
0.00488722 0.246251 0.010048 4 1 0
0.00488917 0.245897 0.0100858 4 1 0
0.00489113 0.245543 0.0101236 4 1 0
0.00489308 0.245188 0.0101616 4 1 0
0.00489503 0.244835 0.0101997 4 1 0
0.00489697 0.244481 0.0102379 4 1 0
0.00489892 0.244127 0.0102762 4 1 0
0.00490086 0.243774 0.0103146 4 1 0
0.00490281 0.243422 0.0103532 4 1 0
0.00490475 0.243068 0.0103918 4 1 0
0.00490668 0.242716 0.0104306 4 1 0
0.00490862 0.242365 0.0104695 4 1 0
0.00491055 0.24201 0.0105085 4 1 0
0.00491249 0.24166 0.0105476 4 1 0
0.00491442 0.24131 0.0105869 4 1 0
0.00491634 0.240957 0.0106262 4 1 0
0.00491827 0.240608 0.0106657 4 1 0
0.0049202 0.240259 0.0107053 4 1 0
0.00492212 0.239908 0.010745 4 1 0
0.00492404 0.23956 0.0107848 4 1 0
0.00492596 0.239212 0.0108248 4 1 0
0.00492787 0.238863 0.0108648 4 1 0
0.00492979 0.238514 0.010905 4 1 0
0.0049317 0.238165 0.0109453 4 1 0
0.00493361 0.237819 0.0109856 4 1 0
0.00493552 0.237471 0.0110262 4 1 0
0.00493743 0.237124 0.0110668 4 1 0
0.00493933 0.236782 0.0111075 4 1 0
0.00494123 0.236435 0.0111483 4 1 0
0.00494313 0.236089 0.0111892 4 1 0
0.00494503 0.235744 0.0112303 4 1 0
0.00494693 0.235399 0.0112715 4 1 0
0.00494882 0.235054 0.0113128 4 1 0
0.00495071 0.234708 0.0113542 4 1 0
0.0049526 0.234364 0.0113957 4 1 0
0.00495449 0.234021 0.0114374 4 1 0
0.00495637 0.233674 0.0114792 4 1 0
0.00495825 0.233331 0.011521 4 1 0
0.00496014 0.232989 0.0115631 4 1 0
0.00496201 0.232646 0.0116052 4 1 0
0.00496389 0.232303 0.0116475 4 1 0
0.00496576 0.231961 0.0116899 4 1 0
0.00496764 0.231622 0.0117324 4 1 0
0.00496951 0.23128 0.011775 4 1 0
0.00497137 0.230938 0.0118177 4 1 0
0.00497324 0.2306 0.0118606 4 1 0
0.0049751 0.230259 0.0119036 4 1 0
0.00497696 0.229919 0.0119467 4 1 0
0.00497882 0.229581 0.01199 4 1 0
0.00498067 0.229242 0.0120334 4 1 0
0.00498253 0.228902 0.0120768 4 1 0
0.00498438 0.228564 0.0121205 4 1 0
0.00498623 0.228226 0.0121642 4 1 0
0.00498807 0.227888 0.0122081 4 1 0
0.00498992 0.227547 0.0122521 4 1 0
0.00499176 0.227211 0.0122962 4 1 0
0.0049936 0.226875 0.0123404 4 1 0
0.00499544 0.226536 0.0123848 4 1 0
0.00499727 0.226199 0.0124293 4 1 0
0.0049991 0.225863 0.0124739 4 1 0
0.00500093 0.225529 0.0125186 4 1 0
0.00500276 0.225193 0.0125635 4 1 0
0.00500458 0.224857 0.0126085 4 1 0
0.00500641 0.224524 0.0126536 4 1 0
0.00500822 0.224188 0.0126988 4 1 0
0.00501004 0.223854 0.0127442 4 1 0
0.00501186 0.223523 0.0127897 4 1 0
0.00501367 0.223189 0.0128353 4 1 0
0.00501548 0.222855 0.0128811 4 1 0
0.00501728 0.222525 0.012927 4 1 0
0.00501909 0.222192 0.012973 4 1 0
0.00502089 0.22186 0.0130191 4 1 0
0.00502269 0.221528 0.0130654 4 1 0
0.00502449 0.221197 0.0131118 4 1 0
0.00502628 0.220866 0.0131583 4 1 0
0.00502807 0.220534 0.0132049 4 1 0
0.00502986 0.220204 0.0132516 4 1 0
0.00503165 0.219874 0.0132985 4 1 0
0.00503343 0.219543 0.0133454 4 1 0
0.00503521 0.219214 0.0133925 4 1 0
0.00503699 0.218886 0.0134397 4 1 0
0.00503876 0.218554 0.0134871 4 1 0
0.00504054 0.218225 0.0135346 4 1 0
0.00504231 0.217898 0.0135821 4 1 0
0.00504407 0.21757 0.0136299 4 1 0
0.00504584 0.217242 0.0136778 4 1 0
0.0050476 0.216915 0.0137257 4 1 0
0.00504936 0.216588 0.0137739 4 1 0
0.00505111 0.216263 0.0138221 4 1 0
0.00505287 0.215937 0.0138705 4 1 0
0.00505462 0.215612 0.0139191 4 1 0
0.00505636 0.215286 0.0139677 4 1 0
0.00505811 0.21496 0.0140165 4 1 0
0.00505985 0.214637 0.0140654 4 1 0
0.00506159 0.214312 0.0141145 4 1 0
0.00506332 0.213987 0.0141636 4 1 0
0.00506506 0.213665 0.014213 4 1 0
0.00506679 0.213341 0.0142624 4 1 0
0.00506852 0.213017 0.014312 4 1 0
0.00507024 0.212695 0.0143617 4 1 0
0.00507196 0.212373 0.0144116 4 1 0
0.00507368 0.21205 0.0144615 4 1 0
0.00507539 0.211726 0.0145116 4 1 0
0.00507711 0.211405 0.0145619 4 1 0
0.00507882 0.211084 0.0146123 4 1 0
0.00508052 0.210762 0.0146628 4 1 0
0.00508223 0.210442 0.0147134 4 1 0
0.00508393 0.210122 0.0147642 4 1 0
0.00508562 0.209801 0.0148151 4 1 0
0.00508732 0.209481 0.0148662 4 1 0
0.00508901 0.209162 0.0149174 4 1 0
0.0050907 0.208846 0.0149687 4 1 0
0.00509238 0.208527 0.0150202 4 1 0
0.00509406 0.208208 0.0150718 4 1 0
0.00509574 0.207891 0.0151235 4 1 0
0.00509742 0.207574 0.0151753 4 1 0
0.00509909 0.207256 0.0152274 4 1 0
0.00510076 0.20694 0.0152795 4 1 0
0.00510243 0.206623 0.0153318 4 1 0
0.00510409 0.206307 0.0153841 4 1 0
0.00510575 0.205991 0.0154365 4 1 0
0.00510741 0.205675 0.0154891 4 1 0
0.00510906 0.20536 0.0155418 4 1 0
0.00511071 0.205045 0.0155947 4 1 0
0.00511236 0.20473 0.0156477 4 1 0
0.005114 0.204416 0.0157008 4 1 0
0.00511564 0.204101 0.0157541 4 1 0
0.00511728 0.203788 0.0158075 4 1 0
0.00511891 0.203475 0.015861 4 1 0
0.00512054 0.203161 0.0159147 4 1 0
0.00512217 0.202849 0.0159685 4 1 0
0.00512379 0.202537 0.0160225 4 1 0
0.00512541 0.202222 0.0160766 4 1 0
0.00512703 0.201911 0.0161308 4 1 0
0.00512864 0.2016 0.0161852 4 1 0
0.00513025 0.20129 0.0162397 4 1 0
0.00513186 0.200979 0.0162944 4 1 0
0.00513346 0.200668 0.0163492 4 1 0
0.00513506 0.200361 0.0164041 4 1 0
0.00513666 0.200051 0.0164592 4 1 0
0.00513825 0.199741 0.0165144 4 1 0
0.00513984 0.199433 0.0165697 4 1 0
0.00514143 0.199125 0.0166252 4 1 0
0.00514301 0.198816 0.0166808 4 1 0
0.00514459 0.198507 0.0167366 4 1 0
0.00514617 0.1982 0.0167925 4 1 0
0.00514774 0.197893 0.0168485 4 1 0
0.00514931 0.197585 0.0169047 4 1 0
0.00515087 0.197279 0.016961 4 1 0
0.00515243 0.196973 0.0170175 4 1 0
0.00515399 0.196666 0.0170741 4 1 0
0.00515555 0.19636 0.0171308 4 1 0
0.0051571 0.196054 0.0171877 4 1 0
0.00515864 0.195749 0.0172447 4 1 0
0.00516019 0.195445 0.0173019 4 1 0
0.00516173 0.195141 0.0173592 4 1 0
0.00516326 0.194837 0.0174167 4 1 0
0.0051648 0.194533 0.0174742 4 1 0
0.00516633 0.194229 0.0175318 4 1 0
0.00516785 0.193929 0.0175896 4 1 0
0.00516937 0.193626 0.0176475 4 1 0
0.00517089 0.193324 0.0177055 4 1 0
0.00517241 0.193023 0.0177637 4 1 0
0.00517392 0.192721 0.0178221 4 1 0
0.00517542 0.192419 0.0178805 4 1 0
0.00517693 0.192119 0.0179392 4 1 0
0.00517843 0.191818 0.0179979 4 1 0
0.00517992 0.191518 0.0180568 4 1 0
0.00518141 0.191219 0.0181159 4 1 0
0.0051829 0.190919 0.018175 4 1 0
0.00518438 0.19062 0.0182344 4 1 0
0.00518587 0.190321 0.0182938 4 1 0
0.00518734 0.190022 0.0183534 4 1 0
0.00518881 0.189724 0.0184132 4 1 0
0.00519028 0.189425 0.0184731 4 1 0
0.00519175 0.189128 0.0185331 4 1 0
0.00519321 0.188831 0.0185933 4 1 0
0.00519467 0.188532 0.0186537 4 1 0
0.00519612 0.188236 0.0187141 4 1 0
0.00519757 0.18794 0.0187747 4 1 0
0.00519902 0.187645 0.0188355 4 1 0
0.00520046 0.187349 0.0188964 4 1 0
0.0052019 0.187053 0.0189575 4 1 0
0.00520333 0.186761 0.0190186 4 1 0
0.00520476 0.186466 0.01908 4 1 0
0.00520619 0.186171 0.0191415 4 1 0
0.00520761 0.185879 0.0192031 4 1 0
0.00520903 0.185585 0.0192649 4 1 0
0.00521044 0.185292 0.0193268 4 1 0
0.00521185 0.184999 0.0193888 4 1 0
0.00521326 0.184707 0.019451 4 1 0
0.00521466 0.184415 0.0195134 4 1 0
0.00521606 0.184123 0.0195759 4 1 0
0.00521745 0.183831 0.0196384 4 1 0
0.00521884 0.18354 0.019701 4 1 0
0.00522023 0.18325 0.0197639 4 1 0
0.00522161 0.182959 0.0198268 4 1 0
0.00522299 0.182669 0.0198899 4 1 0
0.00522436 0.182379 0.0199532 4 1 0
0.00522573 0.18209 0.0200165 4 1 0
0.00522709 0.181801 0.0200801 4 1 0
0.00522846 0.181511 0.0201438 4 1 0
0.00522981 0.181223 0.0202076 4 1 0
0.00523117 0.180935 0.0202716 4 1 0
0.00523252 0.180646 0.0203357 4 1 0
0.00523386 0.180359 0.0203999 4 1 0
0.0052352 0.180072 0.0204644 4 1 0
0.00523654 0.179786 0.0205289 4 1 0
0.00523787 0.179499 0.0205936 4 1 0
0.0052392 0.179212 0.0206585 4 1 0
0.00524052 0.178929 0.0207235 4 1 0
0.00524184 0.178643 0.0207886 4 1 0
0.00524316 0.178358 0.0208539 4 1 0
0.00524447 0.178073 0.0209193 4 1 0
0.00524578 0.177789 0.0209849 4 1 0
0.00524708 0.177505 0.0210507 4 1 0
0.00524838 0.177219 0.0211165 4 1 0
0.00524967 0.176936 0.0211826 4 1 0
0.00525096 0.176654 0.0212488 4 1 0
0.00525225 0.176372 0.0213151 4 1 0
0.00525353 0.176089 0.0213816 4 1 0
0.00525481 0.175807 0.0214482 4 1 0
0.00525608 0.175525 0.021515 4 1 0
0.00525735 0.175244 0.0215819 4 1 0
0.00525861 0.174962 0.021649 4 1 0
0.00525987 0.174684 0.0217162 4 1 0
0.00526113 0.174403 0.0217834 4 1 0
0.00526238 0.174123 0.0218508 4 1 0
0.00526363 0.173844 0.0219183 4 1 0
0.00526487 0.173565 0.021986 4 1 0
0.00526611 0.173286 0.0220538 4 1 0
0.00526734 0.173007 0.0221218 4 1 0
0.00526857 0.172729 0.0221899 4 1 0
0.0052698 0.172451 0.0222582 4 1 0
0.00527102 0.172173 0.0223266 4 1 0
0.00527223 0.171896 0.0223952 4 1 0
0.00527345 0.171619 0.0224639 4 1 0
0.00527465 0.171342 0.0225327 4 1 0
0.00527586 0.171066 0.0226018 4 1 0
0.00527705 0.17079 0.0226709 4 1 0
0.00527825 0.170514 0.0227403 4 1 0
0.00527944 0.170239 0.0228097 4 1 0
0.00528062 0.169964 0.0228794 4 1 0
0.0052818 0.169689 0.0229491 4 1 0
0.00528298 0.169415 0.0230191 4 1 0
0.00528415 0.169141 0.0230891 4 1 0
0.00528532 0.168865 0.0231594 4 1 0
0.00528648 0.168592 0.0232297 4 1 0
0.00528764 0.16832 0.0233003 4 1 0
0.00528879 0.168046 0.023371 4 1 0
0.00528994 0.167774 0.0234418 4 1 0
0.00529109 0.167502 0.0235128 4 1 0
0.00529223 0.16723 0.0235839 4 1 0
0.00529336 0.166958 0.0236552 4 1 0
0.00529449 0.166688 0.0237267 4 1 0
0.00529562 0.166417 0.0237982 4 1 0
0.00529674 0.166147 0.0238698 4 1 0
0.00529786 0.165877 0.0239416 4 1 0
0.00529897 0.165608 0.0240135 4 1 0
0.00530008 0.165338 0.0240855 4 1 0
0.00530118 0.165069 0.0241578 4 1 0
0.00530228 0.164801 0.0242301 4 1 0
0.00530337 0.164533 0.0243026 4 1 0
0.00530446 0.164264 0.0243753 4 1 0
0.00530555 0.163998 0.0244481 4 1 0
0.00530663 0.16373 0.0245211 4 1 0
0.0053077 0.163463 0.0245942 4 1 0
0.00530877 0.163197 0.0246675 4 1 0
0.00530984 0.16293 0.0247409 4 1 0
0.0053109 0.162664 0.0248145 4 1 0
0.00531196 0.162398 0.0248883 4 1 0
0.00531301 0.162133 0.0249622 4 1 0
0.00531405 0.161868 0.0250362 4 1 0
0.0053151 0.161603 0.0251104 4 1 0
0.00531613 0.161339 0.0251848 4 1 0
0.00531717 0.161075 0.0252593 4 1 0
0.0053182 0.16081 0.025334 4 1 0
0.00531922 0.160547 0.0254088 4 1 0
0.00532024 0.160284 0.0254838 4 1 0
0.00532125 0.16002 0.0255589 4 1 0
0.00532226 0.159758 0.0256342 4 1 0
0.00532326 0.159496 0.0257096 4 1 0
0.00532426 0.159232 0.0257853 4 1 0
0.00532526 0.158971 0.025861 4 1 0
0.00532625 0.15871 0.0259368 4 1 0
0.00532723 0.158449 0.0260127 4 1 0
0.00532821 0.158189 0.0260888 4 1 0
0.00532918 0.157928 0.026165 4 1 0
0.00533015 0.157669 0.0262414 4 1 0
0.00533112 0.157409 0.0263179 4 1 0
0.00533208 0.15715 0.0263946 4 1 0
0.00533303 0.156892 0.0264715 4 1 0
0.00533398 0.156633 0.0265485 4 1 0
0.00533493 0.156375 0.0266256 4 1 0
0.00533587 0.156117 0.026703 4 1 0
0.00533681 0.155859 0.0267804 4 1 0
0.00533774 0.155602 0.0268581 4 1 0
0.00533866 0.155344 0.0269359 4 1 0
0.00533958 0.155087 0.0270138 4 1 0
0.0053405 0.154831 0.0270919 4 1 0
0.00534141 0.154574 0.0271702 4 1 0
0.00534231 0.154319 0.0272486 4 1 0
0.00534321 0.154063 0.0273272 4 1 0
0.00534411 0.153807 0.027406 4 1 0
0.005345 0.153552 0.0274849 4 1 0
0.00534588 0.153297 0.0275639 4 1 0
0.00534676 0.153044 0.0276432 4 1 0
0.00534764 0.15279 0.0277226 4 1 0
0.00534851 0.152536 0.0278021 4 1 0
0.00534937 0.152282 0.0278818 4 1 0
0.00535023 0.152029 0.0279617 4 1 0
0.00535109 0.151777 0.0280415 4 1 0
0.00535194 0.151525 0.0281215 4 1 0
0.00535278 0.151272 0.0282017 4 1 0
0.00535362 0.15102 0.028282 4 1 0
0.00535445 0.15077 0.0283625 4 1 0
0.00535528 0.150518 0.0284432 4 1 0
0.00535611 0.150267 0.028524 4 1 0
0.00535692 0.150018 0.028605 4 1 0
0.00535774 0.149768 0.0286861 4 1 0
0.00535855 0.149517 0.0287674 4 1 0
0.00535935 0.149269 0.0288489 4 1 0
0.00536014 0.149019 0.0289305 4 1 0
0.00536094 0.14877 0.0290123 4 1 0
0.00536172 0.148522 0.0290942 4 1 0
0.0053625 0.148273 0.0291763 4 1 0
0.00536328 0.148025 0.0292586 4 1 0
0.00536405 0.147777 0.029341 4 1 0
0.00536482 0.147529 0.0294236 4 1 0
0.00536558 0.147282 0.0295064 4 1 0
0.00536633 0.147035 0.0295893 4 1 0
0.00536708 0.146788 0.0296724 4 1 0
0.00536782 0.146542 0.0297556 4 1 0
0.00536856 0.146296 0.0298391 4 1 0
0.00536929 0.146051 0.0299226 4 1 0
0.00537002 0.145806 0.0300064 4 1 0
0.00537074 0.14556 0.0300902 4 1 0
0.00537146 0.145316 0.030174 4 1 0
0.00537217 0.145072 0.0302581 4 1 0
0.00537288 0.144827 0.0303423 4 1 0
0.00537357 0.144582 0.0304267 4 1 0
0.00537427 0.144339 0.0305112 4 1 0
0.00537496 0.144097 0.0305959 4 1 0
0.00537564 0.143854 0.0306808 4 1 0
0.00537632 0.143611 0.0307658 4 1 0
0.00537699 0.14337 0.0308511 4 1 0
0.00537766 0.143128 0.0309364 4 1 0
0.00537832 0.142886 0.031022 4 1 0
0.00537897 0.142645 0.0311077 4 1 0
0.00537962 0.142403 0.0311935 4 1 0
0.00538026 0.142163 0.0312796 4 1 0
0.0053809 0.141921 0.0313658 4 1 0
0.00538153 0.141681 0.0314522 4 1 0
0.00538216 0.141442 0.0315387 4 1 0
0.00538278 0.141202 0.0316254 4 1 0
0.00538339 0.140962 0.0317123 4 1 0
0.005384 0.140724 0.0317994 4 1 0
0.0053846 0.140484 0.0318866 4 1 0
0.0053852 0.140246 0.031974 4 1 0
0.00538579 0.140008 0.0320616 4 1 0
0.00538638 0.13977 0.0321491 4 1 0
0.00538696 0.139533 0.0322368 4 1 0
0.00538753 0.139296 0.0323246 4 1 0
0.0053881 0.139058 0.0324127 4 1 0
0.00538866 0.138821 0.0325009 4 1 0
0.00538921 0.138585 0.0325892 4 1 0
0.00538976 0.138348 0.0326778 4 1 0
0.00539031 0.138113 0.0327665 4 1 0
0.00539084 0.137877 0.0328554 4 1 0
0.00539137 0.137642 0.0329444 4 1 0
0.0053919 0.137407 0.0330336 4 1 0
0.00539242 0.137173 0.033123 4 1 0
0.00539293 0.136939 0.0332125 4 1 0
0.00539344 0.136705 0.0333023 4 1 0
0.00539394 0.136471 0.0333922 4 1 0
0.00539443 0.136238 0.0334822 4 1 0
0.00539492 0.136005 0.0335725 4 1 0
0.0053954 0.135772 0.0336629 4 1 0
0.00539587 0.135539 0.0337535 4 1 0
0.00539634 0.135306 0.0338442 4 1 0
0.00539681 0.135074 0.0339351 4 1 0
0.00539726 0.134842 0.0340262 4 1 0
0.00539771 0.13461 0.0341175 4 1 0
0.00539815 0.134379 0.034209 4 1 0
0.00539859 0.134148 0.0343005 4 1 0
0.00539902 0.133917 0.0343921 4 1 0
0.00539944 0.133687 0.0344838 4 1 0
0.00539986 0.133457 0.0345758 4 1 0
0.00540027 0.133227 0.0346679 4 1 0
0.00540067 0.132998 0.0347601 4 1 0
0.00540107 0.132769 0.0348526 4 1 0
0.00540146 0.13254 0.0349452 4 1 0
0.00540184 0.132311 0.035038 4 1 0
0.00540222 0.132083 0.035131 4 1 0
0.00540259 0.131855 0.0352241 4 1 0
0.00540295 0.131627 0.0353174 4 1 0
0.00540331 0.1314 0.0354109 4 1 0
0.00540366 0.131173 0.0355046 4 1 0
0.005404 0.130946 0.0355984 4 1 0
0.00540434 0.130719 0.0356925 4 1 0
0.00540467 0.130493 0.0357867 4 1 0
0.00540499 0.130267 0.035881 4 1 0
0.0054053 0.13004 0.0359756 4 1 0
0.00540561 0.129815 0.0360703 4 1 0
0.00540591 0.12959 0.0361652 4 1 0
0.0054062 0.129364 0.0362603 4 1 0
0.00540649 0.12914 0.0363556 4 1 0
0.00540677 0.128915 0.0364509 4 1 0
0.00540704 0.128691 0.0365463 4 1 0
0.0054073 0.128467 0.0366419 4 1 0
0.00540756 0.128243 0.0367376 4 1 0
0.00540781 0.12802 0.0368336 4 1 0
0.00540805 0.127796 0.0369297 4 1 0
0.00540829 0.127573 0.037026 4 1 0
0.00540851 0.127352 0.0371225 4 1 0
0.00540873 0.12713 0.0372191 4 1 0
0.00540894 0.126908 0.037316 4 1 0
0.00540915 0.126685 0.037413 4 1 0
0.00540934 0.126464 0.0375102 4 1 0
0.00540953 0.126243 0.0376076 4 1 0
0.00540971 0.126022 0.0377052 4 1 0
0.00540989 0.125801 0.0378029 4 1 0
0.00541005 0.125581 0.0379008 4 1 0
0.00541021 0.125361 0.0379989 4 1 0
0.00541036 0.125141 0.0380972 4 1 0
0.0054105 0.124921 0.0381957 4 1 0
0.00541063 0.124702 0.0382944 4 1 0
0.00541076 0.124482 0.0383932 4 1 0
0.00541088 0.124264 0.038492 4 1 0
0.00541099 0.124045 0.0385909 4 1 0
0.00541109 0.123827 0.0386901 4 1 0
0.00541118 0.123609 0.0387895 4 1 0
0.00541126 0.123392 0.038889 4 1 0
0.00541134 0.123174 0.0389887 4 1 0
0.0054114 0.122957 0.0390886 4 1 0
0.00541146 0.122741 0.0391887 4 1 0
0.00541151 0.122524 0.039289 4 1 0
0.00541155 0.122308 0.0393895 4 1 0
0.00541159 0.122092 0.0394901 4 1 0
0.00541161 0.121876 0.0395909 4 1 0
0.00541163 0.12166 0.039692 4 1 0
0.00541163 0.121445 0.0397932 4 1 0
0.00541163 0.12123 0.0398946 4 1 0
0.00541163 0.121229 0.0398949 4 1 0
0.00541162 0.121014 0.0399965 4 1 0
0.00541159 0.120799 0.0400982 4 1 0
0.00541156 0.120585 0.0402002 4 1 0
0.00541152 0.120371 0.0403023 4 1 0
0.00541148 0.120157 0.0404044 4 1 0
0.00541142 0.119944 0.0405067 4 1 0
0.00541135 0.119731 0.0406092 4 1 0
0.00541127 0.119518 0.0407119 4 1 0
0.00541119 0.119305 0.0408147 4 1 0
0.00541109 0.119093 0.0409178 4 1 0
0.00541098 0.118881 0.041021 4 1 0
0.00541087 0.118669 0.0411244 4 1 0
0.00541074 0.118457 0.0412281 4 1 0
0.00541061 0.118246 0.0413319 4 1 0
0.00541046 0.118035 0.0414359 4 1 0
0.0054103 0.117823 0.0415401 4 1 0
0.00541014 0.117613 0.0416444 4 1 0
0.00540996 0.117402 0.041749 4 1 0
0.00540977 0.117192 0.0418538 4 1 0
0.00540958 0.116982 0.0419587 4 1 0
0.00540937 0.116772 0.0420639 4 1 0
0.00540915 0.116563 0.0421692 4 1 0
0.00540892 0.116354 0.0422745 4 1 0
0.00540868 0.116145 0.04238 4 1 0
0.00540843 0.115937 0.0424857 4 1 0
0.00540817 0.115729 0.0425916 4 1 0
0.0054079 0.11552 0.0426977 4 1 0
0.00540761 0.115313 0.0428039 4 1 0
0.00540732 0.115106 0.0429104 4 1 0
0.00540701 0.114898 0.0430171 4 1 0
0.00540669 0.114691 0.0431239 4 1 0
0.00540636 0.114484 0.043231 4 1 0
0.00540602 0.114278 0.0433382 4 1 0
0.00540566 0.114071 0.0434457 4 1 0
0.0054053 0.113865 0.0435533 4 1 0
0.00540492 0.113659 0.0436612 4 1 0
0.00540453 0.113453 0.0437692 4 1 0
0.00540413 0.113248 0.0438774 4 1 0
0.00540371 0.113043 0.0439858 4 1 0
0.00540329 0.112838 0.0440943 4 1 0
0.00540285 0.112634 0.0442029 4 1 0
0.00540239 0.112429 0.0443117 4 1 0
0.00540193 0.112226 0.0444207 4 1 0
0.00540145 0.112022 0.0445299 4 1 0
0.00540096 0.111818 0.0446392 4 1 0
0.00540045 0.111615 0.0447488 4 1 0
0.00539993 0.111412 0.0448586 4 1 0
0.0053994 0.111209 0.0449686 4 1 0
0.00539885 0.111006 0.0450788 4 1 0
0.00539829 0.110803 0.0451892 4 1 0
0.00539772 0.110601 0.0452998 4 1 0
0.00539713 0.1104 0.0454105 4 1 0
0.00539653 0.110198 0.0455215 4 1 0
0.00539591 0.109997 0.0456327 4 1 0
0.00539528 0.109795 0.0457441 4 1 0
0.00539463 0.109594 0.0458557 4 1 0
0.00539397 0.109394 0.0459673 4 1 0
0.00539329 0.109193 0.0460792 4 1 0
0.0053926 0.108993 0.0461912 4 1 0
0.00539189 0.108793 0.0463033 4 1 0
0.00539117 0.108594 0.0464156 4 1 0
0.00539043 0.108394 0.0465282 4 1 0
0.00538967 0.108195 0.046641 4 1 0
0.0053889 0.107996 0.046754 4 1 0
0.00538811 0.107798 0.0468672 4 1 0
0.0053873 0.107599 0.0469806 4 1 0
0.00538648 0.107401 0.0470942 4 1 0
0.00538564 0.107203 0.0472081 4 1 0
0.00538478 0.107005 0.0473221 4 1 0
0.00538391 0.106807 0.0474364 4 1 0
0.00538301 0.10661 0.0475508 4 1 0
0.0053821 0.106413 0.0476653 4 1 0
0.00538117 0.106215 0.04778 4 1 0
0.00538022 0.106019 0.0478948 4 1 0
0.00537926 0.105822 0.0480099 4 1 0
0.00537827 0.105627 0.0481251 4 1 0
0.00537727 0.105431 0.0482406 4 1 0
0.00537624 0.105235 0.0483563 4 1 0
0.0053752 0.10504 0.0484722 4 1 0
0.00537413 0.104845 0.0485884 4 1 0
0.00537305 0.10465 0.0487047 4 1 0
0.00537194 0.104455 0.0488213 4 1 0
0.00537082 0.10426 0.0489381 4 1 0
0.00536967 0.104066 0.0490551 4 1 0
0.0053685 0.103872 0.0491722 4 1 0
0.00536731 0.103678 0.0492894 4 1 0
0.00536609 0.103485 0.0494068 4 1 0
0.00536486 0.103291 0.0495244 4 1 0
0.0053636 0.103098 0.0496422 4 1 0
0.00536231 0.102905 0.0497603 4 1 0
0.00536101 0.102712 0.0498785 4 1 0
0.00535968 0.10252 0.0499971 4 1 0
0.00535832 0.102327 0.0501158 4 1 0
0.00535694 0.102135 0.0502347 4 1 0
0.00535554 0.101943 0.0503539 4 1 0
0.00535411 0.101752 0.0504733 4 1 0
0.00535265 0.101561 0.0505929 4 1 0
0.00535117 0.10137 0.0507126 4 1 0
0.00534966 0.101179 0.0508324 4 1 0
0.00534813 0.100988 0.0509524 4 1 0
0.00534656 0.100797 0.0510727 4 1 0
0.00534497 0.100607 0.0511932 4 1 0
0.00534335 0.100417 0.0513139 4 1 0
0.0053417 0.100228 0.0514348 4 1 0
0.00534002 0.100038 0.0515559 4 1 0
0.00533831 0.0998486 0.0516773 4 1 0
0.00533657 0.0996595 0.0517989 4 1 0
0.0053348 0.0994706 0.0519207 4 1 0
0.005333 0.0992819 0.0520428 4 1 0
0.00533117 0.0990934 0.0521651 4 1 0
0.0053293 0.0989051 0.0522875 4 1 0
0.0053274 0.0987171 0.0524101 4 1 0
0.00532546 0.0985292 0.0525328 4 1 0
0.00532349 0.0983416 0.0526557 4 1 0
0.00532148 0.098154 0.0527789 4 1 0
0.00531944 0.0979668 0.0529023 4 1 0
0.00531736 0.0977798 0.053026 4 1 0
0.00531525 0.0975931 0.0531499 4 1 0
0.00531309 0.0974065 0.0532739 4 1 0
0.0053109 0.0972201 0.0533983 4 1 0
0.00530867 0.097034 0.0535228 4 1 0
0.00530639 0.096848 0.0536475 4 1 0
0.00530408 0.0966623 0.0537725 4 1 0
0.00530172 0.0964767 0.0538979 4 1 0
0.00529932 0.0962914 0.0540234 4 1 0
0.00529688 0.0961064 0.0541489 4 1 0
0.00529439 0.0959217 0.0542746 4 1 0
0.00529186 0.095737 0.0544006 4 1 0
0.00528927 0.0955526 0.0545268 4 1 0
0.00528665 0.0953684 0.0546533 4 1 0
0.00528397 0.0951843 0.05478 4 1 0
0.00528124 0.0950005 0.0549069 4 1 0
0.00527846 0.0948168 0.0550342 4 1 0
0.00527563 0.0946333 0.0551616 4 1 0
0.00527274 0.0944501 0.0552893 4 1 0
0.00526981 0.094267 0.0554171 4 1 0
0.00526681 0.0940841 0.055545 4 1 0
0.00526376 0.0939014 0.0556733 4 1 0
0.00526065 0.0937188 0.0558018 4 1 0
0.00525748 0.0935366 0.0559305 4 1 0
0.00525425 0.0933546 0.0560595 4 1 0
0.00525095 0.0931728 0.0561888 4 1 0
0.00524759 0.0929911 0.0563183 4 1 0
0.00524417 0.0928097 0.056448 4 1 0
0.00524067 0.0926285 0.0565777 4 1 0
0.00523711 0.0924475 0.0567078 4 1 0
0.00523348 0.0922666 0.0568381 4 1 0
0.00522977 0.0920859 0.0569688 4 1 0
0.00522599 0.0919054 0.0570998 4 1 0
0.00522214 0.0917251 0.0572309 4 1 0
0.0052182 0.0915446 0.0573621 4 1 0
0.00521418 0.0913647 0.0574936 4 1 0
0.00521008 0.091185 0.0576253 4 1 0
0.0052059 0.0910056 0.0577574 4 1 0
0.00520163 0.0908263 0.0578897 4 1 0
0.00519726 0.0906471 0.0580223 4 1 0
0.00519281 0.0904681 0.0581551 4 1 0
0.00518826 0.0902893 0.058288 4 1 0
0.00518361 0.0901106 0.0584212 4 1 0
0.00517886 0.0899319 0.0585546 4 1 0
0.005174 0.0897536 0.0586884 4 1 0
0.00516904 0.0895756 0.0588225 4 1 0
0.00516397 0.0893979 0.0589569 4 1 0
0.00515878 0.0892201 0.0590914 4 1 0
0.00515348 0.0890426 0.059226 4 1 0
0.00514805 0.0888652 0.0593609 4 1 0
0.0051425 0.088688 0.0594962 4 1 0
0.00513683 0.0885109 0.0596317 4 1 0
0.00513102 0.0883338 0.0597676 4 1 0
0.00512507 0.088157 0.0599038 4 1 0
0.00511898 0.0879804 0.06004 4 1 0
0.00511274 0.0878042 0.0601765 4 1 0
0.00510635 0.087628 0.0603133 4 1 0
0.00509981 0.087452 0.0604504 4 1 0
0.0050931 0.0872761 0.0605878 4 1 0
0.00508622 0.0871004 0.0607255 4 1 0
0.00507917 0.0869247 0.0608635 4 1 0
0.00507194 0.0867492 0.0610016 4 1 0
0.00506452 0.086574 0.06114 4 1 0
0.0050569 0.0863989 0.0612787 4 1 0
0.00504909 0.0862241 0.0614178 4 1 0
0.00504107 0.0860493 0.0615571 4 1 0
0.00503282 0.0858746 0.0616968 4 1 0
0.00502436 0.0856998 0.0618367 4 1 0
0.00501565 0.0855255 0.0619768 4 1 0
0.0050067 0.0853514 0.0621172 4 1 0
0.0049975 0.0851773 0.0622579 4 1 0
0.00498803 0.0850034 0.0623989 4 1 0
0.00497829 0.0848295 0.0625403 4 1 0
0.00496826 0.0846557 0.062682 4 1 0
0.00495792 0.0844823 0.062824 4 1 0
0.00494727 0.0843089 0.0629662 4 1 0
0.0049363 0.0841357 0.0631087 4 1 0
0.00492498 0.0839626 0.0632515 4 1 0
0.0049133 0.0837895 0.0633947 4 1 0
0.00490124 0.0836166 0.0635382 4 1 0
0.00488879 0.0834437 0.063682 4 1 0
0.00487592 0.083271 0.0638262 4 1 0
0.00486262 0.0830983 0.0639707 4 1 0
0.00484887 0.0829259 0.0641155 4 1 0
0.00483463 0.0827535 0.0642606 4 1 0
0.00481989 0.0825813 0.064406 4 1 0
0.00480462 0.0824091 0.0645518 4 1 0
0.00478879 0.0822371 0.064698 4 1 0
0.00477237 0.082065 0.0648445 4 1 0
0.00475533 0.081893 0.0649913 4 1 0
0.00473763 0.0817211 0.0651385 4 1 0
0.00471923 0.0815494 0.0652862 4 1 0
0.00470009 0.0813778 0.0654341 4 1 0
0.00468017 0.0812062 0.0655824 4 1 0
0.00465942 0.0810346 0.0657312 4 1 0
0.00463779 0.0808631 0.0658803 4 1 0
0.00461522 0.0806917 0.0660297 4 1 0
0.00459165 0.0805202 0.0661795 4 1 0
0.00456702 0.0803489 0.0663298 4 1 0
0.00454125 0.0801776 0.0664804 4 1 0
0.00451426 0.0800064 0.0666314 4 1 0
0.00448598 0.0798352 0.0667828 4 1 0
0.0044563 0.079664 0.0669346 4 1 0
0.00442513 0.0794929 0.0670868 4 1 0
0.00439236 0.0793218 0.0672394 4 1 0
0.00435787 0.0791508 0.0673923 4 1 0
0.00432152 0.0789798 0.0675456 4 1 0
0.00428318 0.0788089 0.0676994 4 1 0
0.0042427 0.0786381 0.0678534 4 1 0
0.0041999 0.0784675 0.0680077 4 1 0
0.0041546 0.078297 0.0681622 4 1 0
0.00410661 0.0781267 0.068317 4 1 0
0.00405571 0.0779567 0.0684717 4 1 0
0.0040017 0.077787 0.0686265 4 1 0
0.00394434 0.0776179 0.0687811 4 1 0
0.00388339 0.0774494 0.0689353 4 1 0
0.00381861 0.0772818 0.0690888 4 1 0
0.0037498 0.0771153 0.0692412 4 1 0
0.00367676 0.0769503 0.0693917 4 1 0
0.00359936 0.0767876 0.0695396 4 1 0
0.00351762 0.0766278 0.0696833 4 1 0
0.00343177 0.0764725 0.0698201 4 1 0
0.00334262 0.0763246 0.069945 4 1 0
0.0032523 0.0761897 0.0700485 4 1 0
0.00316598 0.0760791 0.0701127 4 1 0
0.00309279 0.0760085 0.0701167 4 1 0
0.00303909 0.0759824 0.0700603 4 1 0
0.00300173 0.0759882 0.0699642 4 1 0
0.00297497 0.0760125 0.069846 4 1 0
0.00295493 0.0760469 0.0697164 4 1 0
0.0029393 0.0760857 0.0695818 4 1 0
0.00292671 0.0761256 0.0694461 4 1 0
0.00291628 0.0761641 0.0693123 4 1 0
0.00290742 0.0761994 0.0691821 4 1 0
0.00289976 0.0762304 0.0690572 4 1 0
0.00289301 0.0762556 0.0689389 4 1 0
0.00288697 0.0762741 0.0688282 4 1 0
0.00288149 0.0762853 0.0687256 4 1 0
0.00287645 0.0762884 0.0686325 4 1 0
0.00287176 0.0762827 0.0685489 4 1 0
0.00286736 0.0762678 0.0684758 4 1 0
0.00286318 0.0762431 0.0684139 4 1 0
0.00285917 0.0762086 0.0683632 4 1 0
0.0028553 0.0761636 0.0683246 4 1 0
0.00285153 0.0761083 0.0682982 4 1 0
0.00284781 0.0760423 0.0682841 4 1 0
0.00284414 0.0759658 0.0682829 4 1 0
0.00284046 0.0759756 0.0682941 4 1 0
0.00283676 0.0760378 0.0683179 4 1 0
0.002833 0.0760894 0.0683544 4 1 0
0.00282915 0.0761299 0.0684033 4 1 0
0.00282517 0.0761595 0.068464 4 1 0
0.00282102 0.0761787 0.0685364 4 1 0
0.00281665 0.0761874 0.0686199 4 1 0
0.002812 0.0761863 0.0687145 4 1 0
0.00280701 0.0761753 0.0688195 4 1 0
0.00280157 0.0761552 0.068934 4 1 0
0.00279559 0.0761261 0.0690581 4 1 0
0.0027889 0.0760885 0.0691911 4 1 0
0.00278131 0.076043 0.0693322 4 1 0
0.00277254 0.0759899 0.069481 4 1 0
0.00276221 0.0759293 0.0696369 4 1 0
0.00274975 0.0758619 0.0697994 4 1 0
0.00273429 0.0757876 0.0699676 4 1 0
0.00271448 0.0757063 0.070141 4 1 0
0.00268808 0.0756175 0.0703188 4 1 0
0.00265135 0.0755196 0.0705002 4 1 0
0.00259832 0.0754102 0.0706837 4 1 0
0.00252216 0.0752875 0.0708647 4 1 0
0.00242305 0.075157 0.0710331 4 1 0
0.0023112 0.0750292 0.0711817 4 1 0
0.00219442 0.0749083 0.0713128 4 1 0
0.00207559 0.074796 0.0714288 4 1 0
0.00195658 0.0746985 0.0715126 4 1 0
0.00182426 0.0745053 0.071704 4 1 0
0.00168422 0.0744104 0.0718189 4 1 0
0.00156374 0.074314 0.071917 4 1 0
0.00144448 0.0742199 0.0720146 4 1 0
0.00132568 0.0741214 0.0721094 4 1 0
0.00120744 0.0740277 0.0722021 4 1 0
0.00108978 0.0739356 0.0722935 4 1 0
0.000972646 0.0738447 0.0723836 4 1 0
0.00085602 0.0737551 0.0724726 4 1 0
0.000739857 0.0736666 0.0725605 4 1 0
0.000624108 0.0735789 0.0726477 4 1 0
0.000508717 0.0734921 0.0727341 4 1 0
0.000393623 0.0734059 0.07282 4 1 0
0.000278764 0.0733201 0.0729054 4 1 0
0.000164072 0.0732349 0.0729905 4 1 0
4.94794e-05 0.0731504 0.073075 4 1 0
4.94053e-05 0.0731503 0.073075 4 1 0
