0.00365847 0.5092 0.000709935 3 1 0
0.00365742 0.509367 0.000708859 3 1 0
0.00365639 0.509534 0.000707845 3 1 0
0.0036554 0.509691 0.000706895 3 1 0
0.00365444 0.509833 0.000706011 3 1 0
0.00365351 0.509969 0.000705194 3 1 0
0.00365261 0.510095 0.000704444 3 1 0
0.00365175 0.510211 0.000703765 3 1 0
0.00365092 0.51032 0.000703157 3 1 0
0.00365012 0.510418 0.000702621 3 1 0
0.00364937 0.510499 0.000702159 3 1 0
0.00364865 0.510575 0.000701773 3 1 0
0.00364797 0.51064 0.000701463 3 1 0
0.00364732 0.510689 0.000701232 3 1 0
0.00364672 0.510731 0.00070108 3 1 0
0.00364616 0.510761 0.000701009 3 1 0
0.00364565 0.510784 0.00070102 3 1 0
0.00364517 0.510787 0.000701115 3 1 0
0.00364474 0.510779 0.000701294 3 1 0
0.00364435 0.510757 0.000701558 3 1 0
0.00364401 0.510723 0.000701909 3 1 0
0.00364372 0.510676 0.000702347 3 1 0
0.00364347 0.510621 0.000702873 3 1 0
0.00364326 0.510548 0.000703489 3 1 0
0.00364311 0.510462 0.000704193 3 1 0
0.003643 0.51036 0.000704987 3 1 0
0.00364294 0.510248 0.000705871 3 1 0
0.00364292 0.510123 0.000706845 3 1 0
0.00364296 0.509989 0.000707909 3 1 0
0.00364304 0.509838 0.000709063 3 1 0
0.00364317 0.509674 0.000710307 3 1 0
0.00364335 0.509494 0.00071164 3 1 0
0.00364358 0.509305 0.000713062 3 1 0
0.00364385 0.509103 0.000714573 3 1 0
0.00364417 0.508885 0.00071617 3 1 0
0.00364454 0.508659 0.000717855 3 1 0
0.00364495 0.508421 0.000719625 3 1 0
0.00364541 0.508173 0.000721479 3 1 0
0.00364591 0.507911 0.000723417 3 1 0
0.00364645 0.507639 0.000725437 3 1 0
0.00364704 0.507356 0.000727538 3 1 0
0.00364767 0.507063 0.000729719 3 1 0
0.00364834 0.506758 0.000731978 3 1 0
0.00364905 0.50644 0.000734314 3 1 0
0.00364981 0.506116 0.000736726 3 1 0
0.0036506 0.505782 0.000739211 3 1 0
0.00365142 0.505436 0.000741765 3 1 0
0.00365229 0.505084 0.000744389 3 1 0
0.00365318 0.504725 0.000747084 3 1 0
0.00365412 0.504357 0.000749846 3 1 0
0.00365923 0.502416 0.000764536 3 1 0
0.00366035 0.502004 0.000767677 3 1 0
0.0036615 0.501585 0.000770878 3 1 0
0.00366268 0.501161 0.000774136 3 1 0
0.00366388 0.500731 0.00077745 3 1 0
0.0036651 0.500292 0.00078082 3 1 0
0.00366635 0.499852 0.000784243 3 1 0
0.00366763 0.499407 0.00078772 3 1 0
0.00366893 0.498948 0.000791249 3 1 0
0.00367025 0.498494 0.000794829 3 1 0
0.00367159 0.498035 0.000798458 3 1 0
0.00367295 0.497564 0.000802137 3 1 0
0.00367433 0.497097 0.000805864 3 1 0
0.00367573 0.496626 0.000809639 3 1 0
0.00367716 0.496144 0.00081346 3 1 0
0.00367859 0.495665 0.000817327 3 1 0
0.00368005 0.495184 0.000821239 3 1 0
0.00368153 0.494693 0.000825195 3 1 0
0.00368302 0.494205 0.000829196 3 1 0
0.00368452 0.493715 0.000833236 3 1 0
0.00368604 0.49322 0.000837318 3 1 0
0.00368758 0.492723 0.000841441 3 1 0
0.00368913 0.492223 0.000845605 3 1 0
0.0036907 0.491717 0.00084981 3 1 0
0.00369228 0.491213 0.000854055 3 1 0
0.00369387 0.490706 0.000858339 3 1 0
0.00369548 0.490187 0.000862663 3 1 0
0.0036971 0.489677 0.000867025 3 1 0
0.00369873 0.489164 0.000871426 3 1 0
0.00370037 0.488642 0.000875866 3 1 0
0.00370202 0.488126 0.000880342 3 1 0
0.00370369 0.487609 0.000884856 3 1 0
0.00370536 0.487085 0.000889408 3 1 0
0.00370705 0.486559 0.000893995 3 1 0
0.00370874 0.486034 0.00089862 3 1 0
0.00371045 0.485507 0.000903281 3 1 0
0.00371216 0.484982 0.000907977 3 1 0
0.00371389 0.484456 0.000912709 3 1 0
0.00371562 0.483926 0.000917478 3 1 0
0.00371737 0.483396 0.000922281 3 1 0
0.00371912 0.482865 0.000927119 3 1 0
0.00372088 0.482324 0.000931993 3 1 0
0.00372265 0.481791 0.000936901 3 1 0
0.00372442 0.481258 0.000941844 3 1 0
0.0037262 0.480716 0.000946822 3 1 0
0.003728 0.480179 0.000951834 3 1 0
0.00372979 0.479643 0.000956879 3 1 0
0.0037316 0.479103 0.00096196 3 1 0
0.00373341 0.478566 0.000967074 3 1 0
0.00373523 0.478027 0.000972222 3 1 0
0.00373706 0.477481 0.000977404 3 1 0
0.00373889 0.476937 0.00098262 3 1 0
0.00374073 0.476397 0.000987869 3 1 0
0.00374257 0.475852 0.000993153 3 1 0
0.00374442 0.475311 0.000998469 3 1 0
0.00374628 0.47477 0.00100382 3 1 0
0.00374814 0.474221 0.0010092 3 1 0
0.00375001 0.473675 0.00101462 3 1 0
0.00375188 0.473133 0.00102007 3 1 0
0.00375376 0.472588 0.00102556 3 1 0
0.00375565 0.47204 0.00103107 3 1 0
0.00375754 0.471491 0.00103662 3 1 0
0.00375943 0.470954 0.00104221 3 1 0
0.00376133 0.470405 0.00104782 3 1 0
0.00376323 0.469856 0.00105348 3 1 0
0.00376514 0.469314 0.00105916 3 1 0
0.00376706 0.468765 0.00106488 3 1 0
0.00376897 0.468215 0.00107063 3 1 0
0.0037709 0.467671 0.00107641 3 1 0
0.00377282 0.467122 0.00108223 3 1 0
0.00377475 0.466572 0.00108808 3 1 0
0.00377669 0.466027 0.00109396 3 1 0
0.00377863 0.465477 0.00109988 3 1 0
0.00378057 0.464928 0.00110583 3 1 0
0.00378252 0.46438 0.00111182 3 1 0
0.00378447 0.46383 0.00111784 3 1 0
0.00378642 0.46328 0.00112389 3 1 0
0.00378838 0.462732 0.00112997 3 1 0
0.00379034 0.462181 0.00113609 3 1 0
0.00379231 0.46163 0.00114225 3 1 0
0.00379428 0.461084 0.00114843 3 1 0
0.00379625 0.460533 0.00115466 3 1 0
0.00379822 0.459982 0.00116091 3 1 0
0.0038002 0.45944 0.0011672 3 1 0
0.00380219 0.45889 0.00117352 3 1 0
0.00380417 0.45834 0.00117988 3 1 0
0.00380616 0.457795 0.00118627 3 1 0
0.00380815 0.457246 0.00119269 3 1 0
0.00381015 0.456697 0.00119915 3 1 0
0.00381214 0.45615 0.00120565 3 1 0
0.00381414 0.455601 0.00121218 3 1 0
0.00381615 0.455053 0.00121874 3 1 0
0.00381815 0.454506 0.00122533 3 1 0
0.00382016 0.453958 0.00123197 3 1 0
0.00382217 0.45341 0.00123863 3 1 0
0.00382419 0.452863 0.00124533 3 1 0
0.0038262 0.452315 0.00125207 3 1 0
0.00382822 0.451767 0.00125884 3 1 0
0.00383024 0.45122 0.00126564 3 1 0
0.00383227 0.450672 0.00127248 3 1 0
0.00383429 0.450124 0.00127936 3 1 0
0.00383632 0.44957 0.00128625 3 1 0
0.00383835 0.449025 0.0012932 3 1 0
0.00384039 0.448482 0.00130018 3 1 0
0.00384242 0.447935 0.00130721 3 1 0
0.00384446 0.447387 0.00131427 3 1 0
0.0038465 0.446844 0.00132136 3 1 0
0.00384855 0.446306 0.00132852 3 1 0
0.00385059 0.44576 0.00133568 3 1 0
0.00385264 0.445213 0.00134288 3 1 0
0.00385469 0.444676 0.00135014 3 1 0
0.00385674 0.444133 0.00135742 3 1 0
0.00385879 0.443589 0.00136473 3 1 0
0.00386085 0.443043 0.00137209 3 1 0
0.0038629 0.442501 0.00137948 3 1 0
0.00386496 0.441959 0.0013869 3 1 0
0.00386702 0.441413 0.00139437 3 1 0
0.00386909 0.440872 0.00140184 3 1 0
0.00387115 0.440332 0.00140935 3 1 0
0.00387322 0.439782 0.00141689 3 1 0
0.00387529 0.439243 0.00142447 3 1 0
0.00387736 0.438705 0.00143209 3 1 0
0.00387943 0.438163 0.00143974 3 1 0
0.0038815 0.437625 0.00144744 3 1 0
0.00388358 0.437087 0.00145518 3 1 0
0.00388565 0.436543 0.00146294 3 1 0
0.00388773 0.436006 0.00147075 3 1 0
0.00388981 0.435469 0.0014786 3 1 0
0.00389189 0.434927 0.00148649 3 1 0
0.00389398 0.434391 0.00149441 3 1 0
0.00389606 0.433854 0.00150238 3 1 0
0.00389815 0.433314 0.00151038 3 1 0
0.00390024 0.432778 0.00151842 3 1 0
0.00390232 0.432243 0.0015265 3 1 0
0.00390442 0.431699 0.00153462 3 1 0
0.00390651 0.431161 0.00154278 3 1 0
0.0039086 0.430628 0.00155098 3 1 0
0.0039107 0.430096 0.00155922 3 1 0
0.00391279 0.429559 0.0015675 3 1 0
0.00391489 0.429021 0.00157582 3 1 0
0.00391699 0.428492 0.00158417 3 1 0
0.00391909 0.427956 0.00159257 3 1 0
0.00392119 0.42742 0.00160101 3 1 0
0.00392329 0.426894 0.00160949 3 1 0
0.0039254 0.426359 0.00161801 3 1 0
0.0039275 0.425824 0.00162657 3 1 0
0.00392961 0.425298 0.00163517 3 1 0
0.00393172 0.424765 0.00164381 3 1 0
0.00393383 0.424232 0.00165249 3 1 0
0.00393594 0.423706 0.00166122 3 1 0
0.00393805 0.423175 0.00166998 3 1 0
0.00394016 0.422643 0.00167879 3 1 0
0.00394227 0.422115 0.00168764 3 1 0
0.00394439 0.421584 0.00169653 3 1 0
0.00394651 0.421054 0.00170546 3 1 0
0.00394862 0.420528 0.00171443 3 1 0
0.00395074 0.419999 0.00172345 3 1 0
0.00395286 0.419469 0.00173251 3 1 0
0.00395498 0.418947 0.00174161 3 1 0
0.0039571 0.41842 0.00175075 3 1 0
0.00395922 0.417893 0.00175993 3 1 0
0.00396135 0.417368 0.00176917 3 1 0
0.00396347 0.416842 0.00177844 3 1 0
0.0039656 0.416316 0.00178775 3 1 0
0.00396772 0.415792 0.00179711 3 1 0
0.00396985 0.415267 0.00180652 3 1 0
0.00397198 0.414743 0.00181596 3 1 0
0.0039741 0.414219 0.00182545 3 1 0
0.00397623 0.413697 0.00183498 3 1 0
0.00397836 0.413174 0.00184456 3 1 0
0.0039805 0.412651 0.00185415 3 1 0
0.00398263 0.41213 0.00186378 3 1 0
0.00398476 0.411608 0.00187346 3 1 0
0.00398689 0.411086 0.00188317 3 1 0
0.00398903 0.410566 0.00189294 3 1 0
0.00399117 0.410046 0.00190274 3 1 0
0.0039933 0.409525 0.00191259 3 1 0
0.00399544 0.409006 0.00192249 3 1 0
0.00399758 0.408488 0.00193244 3 1 0
0.00399971 0.407967 0.00194242 3 1 0
0.00400185 0.40745 0.00195246 3 1 0
0.00400399 0.406934 0.00196254 3 1 0
0.00400613 0.406415 0.00197266 3 1 0
0.00400828 0.405899 0.00198283 3 1 0
0.00401042 0.405383 0.00199305 3 1 0
0.00401256 0.404864 0.00200331 3 1 0
0.0040147 0.40435 0.00201362 3 1 0
0.00401685 0.403836 0.00202398 3 1 0
0.00401899 0.403318 0.00203438 3 1 0
0.00402114 0.402805 0.00204483 3 1 0
0.00402328 0.402293 0.00205533 3 1 0
0.00402543 0.401774 0.00206587 3 1 0
0.00402758 0.401263 0.00207646 3 1 0
0.00402973 0.400753 0.0020871 3 1 0
0.00403187 0.400238 0.00209778 3 1 0
0.00403402 0.399728 0.00210852 3 1 0
0.00403617 0.399218 0.0021193 3 1 0
0.00403832 0.398704 0.00213013 3 1 0
0.00404047 0.398196 0.00214101 3 1 0
0.00404263 0.397688 0.00215194 3 1 0
0.00404478 0.397179 0.00216291 3 1 0
0.00404693 0.396671 0.00217394 3 1 0
0.00404908 0.396163 0.00218501 3 1 0
0.00405123 0.39565 0.00219613 3 1 0
0.00405339 0.395144 0.0022073 3 1 0
0.00405554 0.394638 0.00221852 3 1 0
0.0040577 0.394126 0.00222979 3 1 0
0.00405985 0.393622 0.00224111 3 1 0
0.00406201 0.393118 0.00225248 3 1 0
0.00406416 0.392607 0.0022639 3 1 0
0.00406632 0.392101 0.00227537 3 1 0
0.00406848 0.391599 0.00228689 3 1 0
0.00407063 0.391096 0.00229846 3 1 0
0.00407279 0.39059 0.00231008 3 1 0
0.00407495 0.390085 0.00232176 3 1 0
0.00407711 0.389586 0.00233348 3 1 0
0.00407927 0.389081 0.00234525 3 1 0
0.00408143 0.388578 0.00235708 3 1 0
0.00408358 0.388085 0.00236896 3 1 0
0.00408574 0.387582 0.00238088 3 1 0
0.0040879 0.38708 0.00239282 3 1 0
0.00409006 0.386581 0.00240481 3 1 0
0.00409223 0.38608 0.00241686 3 1 0
0.00409439 0.385578 0.00242895 3 1 0
0.00409655 0.385078 0.0024411 3 1 0
0.00409871 0.384579 0.0024533 3 1 0
0.00410087 0.384084 0.00246555 3 1 0
0.00410303 0.383589 0.00247785 3 1 0
0.0041052 0.38309 0.00249021 3 1 0
0.00410736 0.382591 0.00250262 3 1 0
0.00410952 0.382094 0.00251508 3 1 0
0.00411168 0.3816 0.0025276 3 1 0
0.00411385 0.381107 0.00254017 3 1 0
0.00411601 0.380612 0.0025528 3 1 0
0.00411817 0.380116 0.00256548 3 1 0
0.00412034 0.379619 0.00257821 3 1 0
0.0041225 0.379132 0.002591 3 1 0
0.00412467 0.378637 0.00260384 3 1 0
0.00412683 0.378143 0.00261674 3 1 0
0.004129 0.377654 0.00262969 4 1 0
0.00413116 0.37716 0.0026427 4 1 0
0.00413333 0.376666 0.00265576 4 1 0
0.00413549 0.376181 0.00266887 4 1 0
0.00413766 0.375689 0.00268204 4 1 0
0.00413982 0.375197 0.00269527 4 1 0
0.00414199 0.37471 0.00270855 4 1 0
0.00414415 0.374219 0.00272189 4 1 0
0.00414632 0.373728 0.00273528 4 1 0
0.00414848 0.373246 0.00274873 4 1 0
0.00415065 0.372757 0.00276224 4 1 0
0.00415282 0.372268 0.0027758 4 1 0
0.00415498 0.371787 0.00278941 4 1 0
0.00415715 0.3713 0.00280309 4 1 0
0.00415931 0.370814 0.00281682 4 1 0
0.00416148 0.370326 0.0028306 4 1 0
0.00416365 0.369843 0.00284445 4 1 0
0.00416581 0.369359 0.00285835 4 1 0
0.00416798 0.368875 0.00287229 4 1 0
0.00417014 0.368392 0.00288631 4 1 0
0.00417231 0.367909 0.00290038 4 1 0
0.00417448 0.367427 0.00291453 4 1 0
0.00417664 0.366945 0.00292872 4 1 0
0.00417881 0.366462 0.00294297 4 1 0
0.00418098 0.365981 0.00295734 4 1 0
0.00418314 0.3655 0.00297171 4 1 0
0.00418531 0.36502 0.00298615 4 1 0
0.00418747 0.364539 0.00300069 4 1 0
0.00418964 0.36406 0.00301525 4 1 0
0.00419181 0.363581 0.00302986 4 1 0
0.00419397 0.363101 0.00304458 4 1 0
0.00419614 0.362623 0.0030593 4 1 0
0.0041983 0.362146 0.00307404 4 1 0
0.00420047 0.361668 0.00308882 4 1 0
0.00420263 0.361191 0.00310369 4 1 0
0.0042048 0.360715 0.00311862 4 1 0
0.00420696 0.360239 0.00313359 4 1 0
0.00420913 0.359763 0.00314865 4 1 0
0.00421129 0.359288 0.00316376 4 1 0
0.00421346 0.358813 0.00317893 4 1 0
0.00421562 0.358339 0.00319416 4 1 0
0.00421779 0.357865 0.00320946 4 1 0
0.00421995 0.357392 0.00322483 4 1 0
0.00422212 0.356919 0.00324025 4 1 0
0.00422428 0.356445 0.00325574 4 1 0
0.00422645 0.355974 0.00327126 4 1 0
0.00422861 0.355502 0.00328688 4 1 0
0.00423077 0.355031 0.00330255 4 1 0
0.00423294 0.35456 0.00331829 4 1 0
0.0042351 0.354089 0.00333409 4 1 0
0.00423726 0.353618 0.00334996 4 1 0
0.00423942 0.353151 0.0033659 4 1 0
0.00424159 0.352681 0.0033819 4 1 0
0.00424375 0.352212 0.00339796 4 1 0
0.00424591 0.351745 0.00341409 4 1 0
0.00424807 0.351277 0.00343029 4 1 0
0.00425023 0.350809 0.00344654 4 1 0
0.00425239 0.350344 0.00346288 4 1 0
0.00425456 0.349877 0.00347927 4 1 0
0.00425672 0.349411 0.00349572 4 1 0
0.00425888 0.348945 0.00351225 4 1 0
0.00426104 0.348481 0.00352884 4 1 0
0.0042632 0.348016 0.00354549 4 1 0
0.00426536 0.347551 0.00356223 4 1 0
0.00426751 0.347088 0.00357901 4 1 0
0.00426967 0.346625 0.00359586 4 1 0
0.00427183 0.346162 0.0036128 4 1 0
0.00427399 0.3457 0.00362979 4 1 0
0.00427615 0.345238 0.00364684 4 1 0
0.0042783 0.344777 0.00366391 4 1 0
0.00428046 0.344315 0.00368104 4 1 0
0.00428262 0.343855 0.00369824 4 1 0
0.00428477 0.343395 0.00371549 4 1 0
0.00428693 0.342935 0.00373282 4 1 0
0.00428908 0.342475 0.00375023 4 1 0
0.00429124 0.342015 0.00376769 4 1 0
0.00429339 0.341557 0.00378523 4 1 0
0.00429555 0.3411 0.00380284 4 1 0
0.0042977 0.340637 0.00382052 4 1 0
0.00429985 0.340182 0.00383826 4 1 0
0.00430201 0.339726 0.00385608 4 1 0
0.00430416 0.339272 0.00387397 4 1 0
0.00430631 0.338817 0.00389193 4 1 0
0.00430846 0.338361 0.00390995 4 1 0
0.00431061 0.337901 0.00392809 4 1 0
0.00431276 0.337448 0.00394625 4 1 0
0.00431491 0.336995 0.00396448 4 1 0
0.00431706 0.336536 0.00398275 4 1 0
0.00431921 0.336085 0.00400112 4 1 0
0.00432136 0.335634 0.00401957 4 1 0
0.00432351 0.335183 0.0040381 4 1 0
0.00432566 0.334729 0.00405669 4 1 0
0.0043278 0.334276 0.00407536 4 1 0
0.00432995 0.333831 0.00409412 4 1 0
0.0043321 0.333379 0.00411294 4 1 0
0.00433424 0.332928 0.00413182 4 1 0
0.00433639 0.33248 0.00415081 4 1 0
0.00433853 0.332031 0.00416984 4 1 0
0.00434067 0.331583 0.00418895 4 1 0
0.00434282 0.331131 0.00420817 4 1 0
0.00434496 0.330684 0.00422742 4 1 0
0.0043471 0.330238 0.00424675 4 1 0
0.00434924 0.329789 0.00426619 4 1 0
0.00435138 0.329343 0.00428563 4 1 0
0.00435352 0.328898 0.00430512 4 1 0
0.00435566 0.328449 0.00432464 4 1 0
0.0043578 0.328005 0.00434428 4 1 0
0.00435994 0.327561 0.00436399 4 1 0
0.00436208 0.327115 0.00438375 4 1 0
0.00436422 0.326672 0.00440362 4 1 0
0.00436635 0.326229 0.00442356 4 1 0
0.00436849 0.325781 0.00444355 4 1 0
0.00437062 0.32534 0.00446364 4 1 0
0.00437276 0.324899 0.00448381 4 1 0
0.00437489 0.324454 0.00450404 4 1 0
0.00437702 0.324014 0.00452436 4 1 0
0.00437915 0.323574 0.00454476 4 1 0
0.00438129 0.323131 0.00456523 4 1 0
0.00438342 0.322689 0.00458578 4 1 0
0.00438555 0.322249 0.00460641 4 1 0
0.00438768 0.321814 0.00462711 4 1 0
0.0043898 0.321373 0.00464789 4 1 0
0.00439193 0.320933 0.00466876 4 1 0
0.00439406 0.320499 0.0046897 4 1 0
0.00439619 0.320061 0.00471072 4 1 0
0.00439831 0.319623 0.00473182 4 1 0
0.00440044 0.319188 0.004753 4 1 0
0.00440256 0.318751 0.00477426 4 1 0
0.00440468 0.318314 0.00479559 4 1 0
0.00440681 0.31788 0.00481702 4 1 0
0.00440893 0.317444 0.00483851 4 1 0
0.00441105 0.317009 0.00486008 4 1 0
0.00441317 0.316575 0.00488175 4 1 0
0.00441529 0.316142 0.00490348 4 1 0
0.0044174 0.315708 0.00492529 4 1 0
0.00441952 0.315274 0.00494719 4 1 0
0.00442164 0.314842 0.00496917 4 1 0
0.00442375 0.31441 0.0049912 4 1 0
0.00442587 0.313976 0.00501329 4 1 0
0.00442798 0.313545 0.00503543 4 1 0
0.0044301 0.313115 0.00505765 4 1 0
0.00443221 0.312681 0.00507993 4 1 0
0.00443432 0.312253 0.00510232 4 1 0
0.00443643 0.311824 0.00512479 4 1 0
0.00443854 0.311391 0.00514727 4 1 0
0.00444065 0.310964 0.00516991 4 1 0
0.00444276 0.310537 0.00519263 4 1 0
0.00444486 0.310108 0.00521541 4 1 0
0.00444697 0.309679 0.0052383 4 1 0
0.00444907 0.30925 0.00526127 4 1 0
0.00445118 0.308829 0.00528432 4 1 0
0.00445328 0.308403 0.00530747 4 1 0
0.00445538 0.307976 0.00533069 4 1 0
0.00445748 0.307551 0.00535402 4 1 0
0.00445958 0.307126 0.00537742 4 1 0
0.00446168 0.306702 0.0054009 4 1 0
0.00446378 0.306277 0.00542449 4 1 0
0.00446588 0.305853 0.00544815 4 1 0
0.00446798 0.30543 0.00547189 4 1 0
0.00447007 0.305005 0.00549575 4 1 0
0.00447216 0.304583 0.00551966 4 1 0
0.00447426 0.304162 0.00554366 4 1 0
0.00447635 0.303738 0.00556779 4 1 0
0.00447844 0.303318 0.00559197 4 1 0
0.00448053 0.302898 0.00561622 4 1 0
0.00448262 0.302477 0.00564049 4 1 0
0.00448471 0.302057 0.00566484 4 1 0
0.00448679 0.301638 0.00568929 4 1 0
0.00448888 0.301219 0.00571377 4 1 0
0.00449096 0.3008 0.00573839 4 1 0
0.00449305 0.300381 0.0057631 4 1 0
0.00449513 0.299963 0.00578787 4 1 0
0.00449721 0.299546 0.00581275 4 1 0
0.00449929 0.299129 0.00583773 4 1 0
0.00450137 0.298709 0.00586277 4 1 0
0.00450345 0.298294 0.00588792 4 1 0
0.00450552 0.297878 0.00591316 4 1 0
0.0045076 0.297458 0.00593848 4 1 0
0.00450967 0.297044 0.0059639 4 1 0
0.00451175 0.296631 0.0059894 4 1 0
0.00451382 0.296217 0.006015 4 1 0
0.00451589 0.295802 0.00604069 4 1 0
0.00451796 0.295388 0.00606647 4 1 0
0.00452003 0.294978 0.00609235 4 1 0
0.0045221 0.294565 0.00611831 4 1 0
0.00452416 0.294151 0.00614436 4 1 0
0.00452623 0.293742 0.00617052 4 1 0
0.00452829 0.29333 0.00619676 4 1 0
0.00453035 0.292919 0.00622308 4 1 0
0.00453241 0.292509 0.00624952 4 1 0
0.00453447 0.292098 0.00627603 4 1 0
0.00453653 0.291688 0.00630264 4 1 0
0.00453859 0.29128 0.00632937 4 1 0
0.00454065 0.29087 0.00635616 4 1 0
0.0045427 0.290461 0.00638304 4 1 0
0.00454475 0.290054 0.00640992 4 1 0
0.00454681 0.289646 0.00643691 4 1 0
0.00454886 0.289239 0.00646399 4 1 0
0.00455091 0.28883 0.00649113 4 1 0
0.00455295 0.288424 0.00651839 4 1 0
0.004555 0.288019 0.00654575 4 1 0
0.00455705 0.287613 0.0065732 4 1 0
0.00455909 0.287208 0.00660075 4 1 0
0.00456113 0.286803 0.00662839 4 1 0
0.00456318 0.286398 0.00665612 4 1 0
0.00456522 0.285994 0.00668395 4 1 0
0.00456725 0.285591 0.00671187 4 1 0
0.00456929 0.285187 0.00673986 4 1 0
0.00457133 0.284784 0.00676798 4 1 0
0.00457336 0.284382 0.00679619 4 1 0
0.0045754 0.283978 0.0068245 4 1 0
0.00457743 0.283577 0.00685291 4 1 0
0.00457946 0.283176 0.00688142 4 1 0
0.00458149 0.28277 0.00691005 4 1 0
0.00458351 0.282371 0.00693875 4 1 0
0.00458554 0.281972 0.00696755 4 1 0
0.00458757 0.281571 0.00699647 4 1 0
0.00458959 0.281173 0.00702547 4 1 0
0.00459161 0.280775 0.00705456 4 1 0
0.00459363 0.280374 0.00708379 4 1 0
0.00459565 0.279977 0.00711308 4 1 0
0.00459767 0.279581 0.00714247 4 1 0
0.00459968 0.279182 0.007172 4 1 0
0.0046017 0.278783 0.00720153 4 1 0
0.00460371 0.278387 0.00723113 4 1 0
0.00460572 0.277995 0.00726079 4 1 0
0.00460773 0.277598 0.00729059 4 1 0
0.00460974 0.277202 0.00732049 4 1 0
0.00461175 0.27681 0.00735044 4 1 0
0.00461375 0.276415 0.00738054 4 1 0
0.00461575 0.27602 0.00741074 4 1 0
0.00461776 0.275628 0.00744102 4 1 0
0.00461976 0.275235 0.00747142 4 1 0
0.00462175 0.274841 0.00750192 4 1 0
0.00462375 0.274449 0.00753251 4 1 0
0.00462575 0.274057 0.00756321 4 1 0
0.00462774 0.273665 0.00759402 4 1 0
0.00462973 0.273272 0.00762493 4 1 0
0.00463172 0.272882 0.00765594 4 1 0
0.00463371 0.272492 0.00768706 4 1 0
0.0046357 0.2721 0.0077183 4 1 0
0.00463769 0.271711 0.00774962 4 1 0
0.00463967 0.271323 0.00778104 4 1 0
0.00464165 0.270931 0.00781259 4 1 0
0.00464363 0.270541 0.00784422 4 1 0
0.00464561 0.270153 0.00787596 4 1 0
0.00464759 0.26977 0.00790784 4 1 0
0.00464957 0.269382 0.00793979 4 1 0
0.00465154 0.268994 0.00797184 4 1 0
0.00465351 0.268609 0.00800404 4 1 0
0.00465548 0.268222 0.00803621 4 1 0
0.00465745 0.267836 0.00806849 4 1 0
0.00465942 0.267451 0.00810082 4 1 0
0.00466138 0.267066 0.0081333 4 1 0
0.00466335 0.26668 0.00816589 4 1 0
0.00466531 0.266298 0.00819855 4 1 0
0.00466727 0.265914 0.00823135 4 1 0
0.00466923 0.26553 0.00826426 4 1 0
0.00467118 0.265147 0.00829725 4 1 0
0.00467314 0.264765 0.00833037 4 1 0
0.00467509 0.264382 0.0083636 4 1 0
0.00467704 0.264 0.00839692 4 1 0
0.00467899 0.263619 0.00843037 4 1 0
0.00468094 0.263238 0.00846392 4 1 0
0.00468288 0.262857 0.00849758 4 1 0
0.00468483 0.262477 0.00853134 4 1 0
0.00468677 0.262097 0.00856521 4 1 0
0.00468871 0.261717 0.00859921 4 1 0
0.00469065 0.261338 0.0086333 4 1 0
0.00469258 0.26096 0.0086675 4 1 0
0.00469452 0.26058 0.00870183 4 1 0
0.00469645 0.260203 0.00873625 4 1 0
0.00469838 0.259825 0.00877077 4 1 0
0.00470031 0.259446 0.00880545 4 1 0
0.00470224 0.25907 0.00884019 4 1 0
0.00470416 0.258694 0.00887505 4 1 0
0.00470608 0.258316 0.00891006 4 1 0
0.00470801 0.257941 0.00894514 4 1 0
0.00470992 0.257567 0.00898024 4 1 0
0.00471184 0.25719 0.00901539 4 1 0
0.00471376 0.256817 0.0090507 4 1 0
0.00471567 0.256443 0.00908612 4 1 0
0.00471758 0.256068 0.0091216 4 1 0
0.00471949 0.255696 0.00915725 4 1 0
0.0047214 0.255324 0.009193 4 1 0
0.0047233 0.25495 0.00922884 4 1 0
0.0047252 0.254578 0.00926482 4 1 0
0.00472711 0.254207 0.00930091 4 1 0
0.004729 0.253833 0.0093371 4 1 0
0.0047309 0.253463 0.00937341 4 1 0
0.0047328 0.253093 0.00940984 4 1 0
0.00473469 0.252722 0.00944638 4 1 0
0.00473658 0.252352 0.00948304 4 1 0
0.00473847 0.251981 0.00951981 4 1 0
0.00474035 0.251616 0.00955671 4 1 0
0.00474224 0.251247 0.00959372 4 1 0
0.00474412 0.250878 0.00963083 4 1 0
0.004746 0.250511 0.00966809 4 1 0
0.00474788 0.250143 0.00970544 4 1 0
0.00474976 0.249776 0.0097429 4 1 0
0.00475163 0.249409 0.00978052 4 1 0
0.0047535 0.249043 0.00981822 4 1 0
0.00475537 0.248677 0.00985602 4 1 0
0.00475724 0.248308 0.00989401 4 1 0
0.0047591 0.247943 0.00993202 4 1 0
0.00476097 0.247579 0.00997008 4 1 0
0.00476283 0.247215 0.0100082 4 1 0
0.00476468 0.246851 0.0100465 4 1 0
0.00476654 0.246486 0.0100849 4 1 0
0.00476839 0.246125 0.0101233 4 1 0
0.00477025 0.245761 0.010162 4 1 0
0.0047721 0.245398 0.0102007 4 1 0
0.00477394 0.245037 0.0102396 4 1 0
0.00477579 0.244674 0.0102786 4 1 0
0.00477763 0.244312 0.0103177 4 1 0
0.00477947 0.243952 0.0103569 4 1 0
0.00478131 0.24359 0.0103962 4 1 0
0.00478315 0.243229 0.0104357 4 1 0
0.00478498 0.242871 0.0104753 4 1 0
0.00478681 0.242512 0.010515 4 1 0
0.00478864 0.242152 0.0105548 4 1 0
0.00479047 0.241793 0.0105948 4 1 0
0.00479229 0.241435 0.0106348 4 1 0
0.00479411 0.241077 0.010675 4 1 0
0.00479593 0.240717 0.0107154 4 1 0
0.00479775 0.240361 0.0107558 4 1 0
0.00479957 0.240004 0.0107963 4 1 0
0.00480138 0.239645 0.010837 4 1 0
0.00480319 0.23929 0.0108778 4 1 0
0.004805 0.238934 0.0109187 4 1 0
0.0048068 0.238577 0.0109598 4 1 0
0.00480861 0.238223 0.0110008 4 1 0
0.00481041 0.237869 0.011042 4 1 0
0.0048122 0.237514 0.0110832 4 1 0
0.004814 0.237159 0.0111246 4 1 0
0.00481579 0.236805 0.0111662 4 1 0
0.00481758 0.236454 0.0112078 4 1 0
0.00481937 0.236101 0.0112496 4 1 0
0.00482116 0.235747 0.0112915 4 1 0
0.00482294 0.235398 0.0113335 4 1 0
0.00482472 0.235046 0.0113756 4 1 0
0.0048265 0.234694 0.0114179 4 1 0
0.00482828 0.234344 0.0114603 4 1 0
0.00483005 0.233993 0.0115028 4 1 0
0.00483182 0.233642 0.0115454 4 1 0
0.00483359 0.233292 0.0115882 4 1 0
0.00483535 0.232943 0.0116311 4 1 0
0.00483712 0.232594 0.0116741 4 1 0
0.00483888 0.232243 0.0117172 4 1 0
0.00484064 0.231896 0.0117605 4 1 0
0.00484239 0.231548 0.0118039 4 1 0
0.00484415 0.231198 0.0118474 4 1 0
0.0048459 0.230852 0.0118911 4 1 0
0.00484764 0.230505 0.0119348 4 1 0
0.00484939 0.230159 0.0119788 4 1 0
0.00485113 0.229812 0.0120228 4 1 0
0.00485287 0.229466 0.0120669 4 1 0
0.00485461 0.229123 0.0121112 4 1 0
0.00485634 0.228778 0.0121555 4 1 0
0.00485807 0.228433 0.0121999 4 1 0
0.0048598 0.228088 0.0122444 4 1 0
0.00486153 0.227744 0.0122891 4 1 0
0.00486325 0.227401 0.0123339 4 1 0
0.00486497 0.227054 0.0123788 4 1 0
0.00486669 0.226712 0.0124238 4 1 0
0.00486841 0.226371 0.012469 4 1 0
0.00487012 0.226029 0.0125143 4 1 0
0.00487183 0.225687 0.0125597 4 1 0
0.00487354 0.225345 0.0126053 4 1 0
0.00487524 0.225006 0.012651 4 1 0
0.00487694 0.224665 0.0126968 4 1 0
0.00487864 0.224325 0.0127428 4 1 0
0.00488034 0.223983 0.0127888 4 1 0
0.00488203 0.223644 0.0128351 4 1 0
0.00488372 0.223306 0.0128814 4 1 0
0.00488541 0.222964 0.0129279 4 1 0
0.0048871 0.222625 0.0129745 4 1 0
0.00488878 0.222288 0.0130212 4 1 0
0.00489046 0.221951 0.0130681 4 1 0
0.00489214 0.221613 0.0131151 4 1 0
0.00489381 0.221275 0.0131622 4 1 0
0.00489548 0.220942 0.0132095 4 1 0
0.00489715 0.220605 0.0132569 4 1 0
0.00489881 0.220269 0.0133044 4 1 0
0.00490047 0.219933 0.0133521 4 1 0
0.00490213 0.219598 0.0133998 4 1 0
0.00490379 0.219263 0.0134476 4 1 0
0.00490544 0.218928 0.0134955 4 1 0
0.00490709 0.218595 0.0135436 4 1 0
0.00490874 0.218261 0.0135918 4 1 0
0.00491039 0.217926 0.0136401 4 1 0
0.00491203 0.217594 0.0136885 4 1 0
0.00491367 0.217262 0.0137371 4 1 0
0.0049153 0.216927 0.0137858 4 1 0
0.00491693 0.216596 0.0138347 4 1 0
0.00491856 0.216265 0.0138837 4 1 0
0.00492019 0.215932 0.0139328 4 1 0
0.00492181 0.215601 0.013982 4 1 0
0.00492343 0.215271 0.0140314 4 1 0
0.00492505 0.214941 0.0140809 4 1 0
0.00492667 0.214611 0.0141306 4 1 0
0.00492828 0.214281 0.0141804 4 1 0
0.00492989 0.213954 0.0142303 4 1 0
0.00493149 0.213625 0.0142804 4 1 0
0.00493309 0.213296 0.0143306 4 1 0
0.00493469 0.21297 0.014381 4 1 0
0.00493629 0.212642 0.0144314 4 1 0
0.00493788 0.212315 0.014482 4 1 0
0.00493947 0.211987 0.0145328 4 1 0
0.00494106 0.211661 0.0145837 4 1 0
0.00494264 0.211335 0.0146347 4 1 0
0.00494422 0.211008 0.014686 4 1 0
0.0049458 0.210683 0.0147373 4 1 0
0.00494737 0.210358 0.0147886 4 1 0
0.00494894 0.210031 0.01484 4 1 0
0.00495051 0.209708 0.0148916 4 1 0
0.00495207 0.209384 0.0149433 4 1 0
0.00495364 0.209058 0.0149952 4 1 0
0.00495519 0.208736 0.0150471 4 1 0
0.00495675 0.208413 0.0150993 4 1 0
0.0049583 0.20809 0.0151515 4 1 0
0.00495985 0.207767 0.015204 4 1 0
0.00496139 0.207445 0.0152565 4 1 0
0.00496293 0.207127 0.0153092 4 1 0
0.00496447 0.206805 0.015362 4 1 0
0.00496601 0.206484 0.015415 4 1 0
0.00496754 0.206164 0.0154681 4 1 0
0.00496907 0.205844 0.0155213 4 1 0
0.00497059 0.205524 0.0155747 4 1 0
0.00497211 0.205204 0.0156282 4 1 0
0.00497363 0.204885 0.0156819 4 1 0
0.00497515 0.204566 0.0157357 4 1 0
0.00497666 0.204245 0.0157897 4 1 0
0.00497817 0.203928 0.0158437 4 1 0
0.00497967 0.203611 0.015898 4 1 0
0.00498117 0.203293 0.0159524 4 1 0
0.00498267 0.202976 0.0160069 4 1 0
0.00498417 0.202658 0.0160615 4 1 0
0.00498566 0.202345 0.0161164 4 1 0
0.00498714 0.202029 0.0161713 4 1 0
0.00498863 0.201713 0.0162264 4 1 0
0.00499011 0.201398 0.0162816 4 1 0
0.00499159 0.201083 0.0163368 4 1 0
0.00499306 0.200769 0.0163922 4 1 0
0.00499453 0.200451 0.0164477 4 1 0
0.004996 0.200138 0.0165033 4 1 0
0.00499746 0.199825 0.0165591 4 1 0
0.00499892 0.199512 0.016615 4 1 0
0.00500038 0.199199 0.0166711 4 1 0
0.00500183 0.198885 0.0167274 4 1 0
0.00500328 0.198576 0.0167837 4 1 0
0.00500472 0.198264 0.0168403 4 1 0
0.00500617 0.197953 0.0168969 4 1 0
0.00500761 0.197642 0.0169537 4 1 0
0.00500904 0.197331 0.0170107 4 1 0
0.00501047 0.197021 0.0170678 4 1 0
0.0050119 0.196711 0.0171251 4 1 0
0.00501332 0.196401 0.0171824 4 1 0
0.00501474 0.196092 0.01724 4 1 0
0.00501616 0.195783 0.0172977 4 1 0
0.00501757 0.195474 0.0173555 4 1 0
0.00501898 0.195166 0.0174135 4 1 0
0.00502039 0.194857 0.0174716 4 1 0
0.00502179 0.19455 0.0175299 4 1 0
0.00502319 0.194243 0.0175883 4 1 0
0.00502458 0.193934 0.0176468 4 1 0
0.00502597 0.193628 0.0177055 4 1 0
0.00502736 0.193323 0.0177644 4 1 0
0.00502874 0.193015 0.0178234 4 1 0
0.00503012 0.192709 0.0178825 4 1 0
0.0050315 0.192404 0.0179417 4 1 0
0.00503287 0.192101 0.018001 4 1 0
0.00503424 0.191796 0.0180604 4 1 0
0.0050356 0.191491 0.01812 4 1 0
0.00503697 0.19119 0.0181798 4 1 0
0.00503832 0.190886 0.0182396 4 1 0
0.00503967 0.190583 0.0182997 4 1 0
0.00504102 0.19028 0.0183598 4 1 0
0.00504237 0.189978 0.0184202 4 1 0
0.00504371 0.189676 0.0184807 4 1 0
0.00504505 0.189373 0.0185413 4 1 0
0.00504638 0.189072 0.0186021 4 1 0
0.00504771 0.188771 0.018663 4 1 0
0.00504904 0.188468 0.0187241 4 1 0
0.00505036 0.188167 0.0187853 4 1 0
0.00505168 0.187868 0.0188467 4 1 0
0.00505299 0.18757 0.0189082 4 1 0
0.0050543 0.18727 0.0189699 4 1 0
0.00505561 0.18697 0.0190317 4 1 0
0.00505691 0.186673 0.0190937 4 1 0
0.00505821 0.186375 0.0191558 4 1 0
0.0050595 0.186076 0.0192181 4 1 0
0.00506079 0.185779 0.0192805 4 1 0
0.00506208 0.185482 0.0193431 4 1 0
0.00506336 0.185185 0.0194059 4 1 0
0.00506464 0.184888 0.0194688 4 1 0
0.00506591 0.184592 0.0195318 4 1 0
0.00506718 0.184296 0.019595 4 1 0
0.00506845 0.184 0.0196583 4 1 0
0.00506971 0.183705 0.0197217 4 1 0
0.00507096 0.18341 0.0197852 4 1 0
0.00507222 0.183115 0.0198488 4 1 0
0.00507347 0.182821 0.0199126 4 1 0
0.00507471 0.182527 0.0199766 4 1 0
0.00507595 0.182231 0.0200407 4 1 0
0.00507719 0.181939 0.0201049 4 1 0
0.00507842 0.181646 0.0201693 4 1 0
0.00507965 0.181354 0.0202339 4 1 0
0.00508087 0.181062 0.0202986 4 1 0
0.00508209 0.180769 0.0203635 4 1 0
0.00508331 0.180479 0.0204285 4 1 0
0.00508452 0.180188 0.0204937 4 1 0
0.00508573 0.179897 0.0205591 4 1 0
0.00508693 0.179605 0.0206246 4 1 0
0.00508813 0.179315 0.0206902 4 1 0
0.00508932 0.179026 0.020756 4 1 0
0.00509051 0.178734 0.020822 4 1 0
0.0050917 0.178446 0.0208881 4 1 0
0.00509288 0.178157 0.0209544 4 1 0
0.00509406 0.177867 0.0210208 4 1 0
0.00509523 0.177579 0.0210874 4 1 0
0.0050964 0.177292 0.0211541 4 1 0
0.00509756 0.177004 0.021221 4 1 0
0.00509872 0.176717 0.0212881 4 1 0
0.00509987 0.176429 0.0213553 4 1 0
0.00510102 0.176142 0.0214226 4 1 0
0.00510217 0.175856 0.0214901 4 1 0
0.00510331 0.175571 0.0215578 4 1 0
0.00510445 0.175286 0.0216255 4 1 0
0.00510558 0.175 0.0216933 4 1 0
0.00510671 0.174714 0.0217613 4 1 0
0.00510783 0.174431 0.0218295 4 1 0
0.00510895 0.174147 0.0218978 4 1 0
0.00511007 0.173862 0.0219662 4 1 0
0.00511118 0.17358 0.0220349 4 1 0
0.00511228 0.173297 0.0221036 4 1 0
0.00511338 0.173014 0.0221726 4 1 0
0.00511448 0.172731 0.0222417 4 1 0
0.00511557 0.172449 0.0223109 4 1 0
0.00511666 0.172167 0.0223803 4 1 0
0.00511774 0.171885 0.0224499 4 1 0
0.00511882 0.171604 0.0225196 4 1 0
0.00511989 0.171323 0.0225895 4 1 0
0.00512096 0.171041 0.0226595 4 1 0
0.00512202 0.170761 0.0227297 4 1 0
0.00512308 0.170482 0.0228001 4 1 0
0.00512413 0.170201 0.0228706 4 1 0
0.00512518 0.169921 0.0229412 4 1 0
0.00512623 0.169642 0.023012 4 1 0
0.00512727 0.169363 0.023083 4 1 0
0.0051283 0.169084 0.0231542 4 1 0
0.00512933 0.168807 0.0232255 4 1 0
0.00513036 0.16853 0.0232969 4 1 0
0.00513138 0.168252 0.0233685 4 1 0
0.00513239 0.167974 0.0234403 4 1 0
0.0051334 0.167699 0.0235122 4 1 0
0.00513441 0.167423 0.0235843 4 1 0
0.00513541 0.167146 0.0236566 4 1 0
0.0051364 0.166871 0.0237291 4 1 0
0.0051374 0.166596 0.0238017 4 1 0
0.00513838 0.16632 0.0238744 4 1 0
0.00513936 0.166046 0.0239472 4 1 0
0.00514034 0.165771 0.0240202 4 1 0
0.00514131 0.165497 0.0240933 4 1 0
0.00514228 0.165223 0.0241665 4 1 0
0.00514324 0.164949 0.0242399 4 1 0
0.00514419 0.164676 0.0243135 4 1 0
0.00514514 0.164401 0.0243872 4 1 0
0.00514609 0.164129 0.0244611 4 1 0
0.00514703 0.163857 0.0245352 4 1 0
0.00514797 0.163586 0.0246094 4 1 0
0.0051489 0.163314 0.0246838 4 1 0
0.00514982 0.163042 0.0247584 4 1 0
0.00515074 0.162773 0.0248331 4 1 0
0.00515166 0.162502 0.024908 4 1 0
0.00515257 0.162231 0.024983 4 1 0
0.00515347 0.161962 0.0250582 4 1 0
0.00515437 0.161692 0.0251336 4 1 0
0.00515526 0.161423 0.0252092 4 1 0
0.00515615 0.161154 0.0252849 4 1 0
0.00515704 0.160885 0.0253608 4 1 0
0.00515791 0.160616 0.0254368 4 1 0
0.00515879 0.160348 0.0255131 4 1 0
0.00515965 0.16008 0.0255894 4 1 0
0.00516052 0.159813 0.025666 4 1 0
0.00516137 0.159546 0.0257427 4 1 0
0.00516222 0.159279 0.0258196 4 1 0
0.00516307 0.159012 0.0258965 4 1 0
0.00516391 0.158746 0.0259735 4 1 0
0.00516475 0.15848 0.0260508 4 1 0
0.00516557 0.158215 0.0261281 4 1 0
0.0051664 0.157949 0.0262057 4 1 0
0.00516722 0.157684 0.0262834 4 1 0
0.00516803 0.157419 0.0263613 4 1 0
0.00516884 0.157154 0.0264394 4 1 0
0.00516964 0.15689 0.0265176 4 1 0
0.00517043 0.156627 0.026596 4 1 0
0.00517122 0.156363 0.0266746 4 1 0
0.00517201 0.156099 0.0267533 4 1 0
0.00517279 0.155836 0.0268322 4 1 0
0.00517356 0.155576 0.0269112 4 1 0
0.00517433 0.155314 0.0269905 4 1 0
0.00517509 0.155052 0.0270699 4 1 0
0.00517585 0.15479 0.0271495 4 1 0
0.0051766 0.154529 0.0272292 4 1 0
0.00517734 0.154268 0.0273091 4 1 0
0.00517808 0.154008 0.0273892 4 1 0
0.00517881 0.153747 0.0274695 4 1 0
0.00517954 0.153487 0.0275499 4 1 0
0.00518026 0.153228 0.0276305 4 1 0
0.00518098 0.152968 0.0277113 4 1 0
0.00518169 0.152709 0.0277922 4 1 0
0.00518239 0.152451 0.0278733 4 1 0
0.00518309 0.152192 0.0279544 4 1 0
0.00518378 0.151934 0.0280357 4 1 0
0.00518446 0.151676 0.0281173 4 1 0
0.00518514 0.151419 0.0281989 4 1 0
0.00518581 0.151161 0.0282807 4 1 0
0.00518648 0.150905 0.0283626 4 1 0
0.00518714 0.150648 0.0284447 4 1 0
0.0051878 0.150392 0.028527 4 1 0
0.00518844 0.150135 0.0286095 4 1 0
0.00518909 0.14988 0.0286921 4 1 0
0.00518972 0.149624 0.028775 4 1 0
0.00519035 0.149369 0.028858 4 1 0
0.00519097 0.149114 0.0289411 4 1 0
0.00519159 0.148859 0.0290245 4 1 0
0.0051922 0.148607 0.029108 4 1 0
0.00519281 0.148353 0.0291917 4 1 0
0.0051934 0.148099 0.0292756 4 1 0
0.005194 0.147846 0.0293596 4 1 0
0.00519458 0.147593 0.0294438 4 1 0
0.00519516 0.14734 0.0295282 4 1 0
0.00519573 0.147088 0.0296126 4 1 0
0.0051963 0.146836 0.0296973 4 1 0
0.00519685 0.146585 0.0297822 4 1 0
0.00519741 0.146333 0.0298674 4 1 0
0.00519795 0.146082 0.0299527 4 1 0
0.00519849 0.145831 0.0300381 4 1 0
0.00519902 0.14558 0.0301236 4 1 0
0.00519955 0.14533 0.0302093 4 1 0
0.00520007 0.14508 0.030295 4 1 0
0.00520058 0.14483 0.030381 4 1 0
0.00520108 0.14458 0.0304671 4 1 0
0.00520158 0.144331 0.0305535 4 1 0
0.00520207 0.144083 0.0306399 4 1 0
0.00520256 0.143835 0.0307266 4 1 0
0.00520303 0.143587 0.0308135 4 1 0
0.0052035 0.143339 0.0309006 4 1 0
0.00520397 0.143091 0.0309878 4 1 0
0.00520442 0.142844 0.0310752 4 1 0
0.00520487 0.142598 0.0311627 4 1 0
0.00520531 0.142351 0.0312505 4 1 0
0.00520575 0.142105 0.0313384 4 1 0
0.00520618 0.141859 0.0314266 4 1 0
0.0052066 0.141614 0.0315149 4 1 0
0.00520701 0.141368 0.0316034 4 1 0
0.00520742 0.141123 0.0316921 4 1 0
0.00520782 0.140878 0.0317809 4 1 0
0.00520821 0.140634 0.03187 4 1 0
0.00520859 0.14039 0.031959 4 1 0
0.00520897 0.140146 0.0320482 4 1 0
0.00520933 0.139902 0.0321375 4 1 0
0.0052097 0.139659 0.0322271 4 1 0
0.00521005 0.139416 0.0323168 4 1 0
0.0052104 0.139173 0.0324067 4 1 0
0.00521073 0.138931 0.0324968 4 1 0
0.00521106 0.138688 0.0325871 4 1 0
0.00521139 0.138447 0.0326776 4 1 0
0.0052117 0.138205 0.0327682 4 1 0
0.00521201 0.137964 0.032859 4 1 0
0.00521231 0.137723 0.0329501 4 1 0
0.0052126 0.137482 0.0330413 4 1 0
0.00521288 0.137241 0.0331327 4 1 0
0.00521316 0.137001 0.0332242 4 1 0
0.00521343 0.136761 0.033316 4 1 0
0.00521369 0.136521 0.033408 4 1 0
0.00521394 0.136282 0.0335001 4 1 0
0.00521418 0.136043 0.0335924 4 1 0
0.00521441 0.135805 0.0336849 4 1 0
0.00521464 0.135566 0.0337775 4 1 0
0.00521486 0.135329 0.0338702 4 1 0
0.00521507 0.135091 0.0339631 4 1 0
0.00521527 0.134853 0.0340561 4 1 0
0.00521546 0.134616 0.0341493 4 1 0
0.00521565 0.134379 0.0342427 4 1 0
0.00521582 0.134143 0.0343363 4 1 0
0.00521599 0.133906 0.0344301 4 1 0
0.00521615 0.13367 0.034524 4 1 0
0.0052163 0.133435 0.0346182 4 1 0
0.00521644 0.133199 0.0347125 4 1 0
0.00521657 0.132964 0.034807 4 1 0
0.00521669 0.132729 0.0349017 4 1 0
0.00521681 0.132494 0.0349966 4 1 0
0.00521691 0.13226 0.0350916 4 1 0
0.00521701 0.132026 0.0351869 4 1 0
0.0052171 0.131792 0.0352823 4 1 0
0.00521717 0.131558 0.0353779 4 1 0
0.00521724 0.131325 0.0354737 4 1 0
0.0052173 0.131092 0.0355696 4 1 0
0.00521735 0.130859 0.0356658 4 1 0
0.00521739 0.130626 0.0357621 4 1 0
0.00521742 0.130395 0.0358587 4 1 0
0.00521744 0.130164 0.0359554 4 1 0
0.00521746 0.129932 0.0360523 4 1 0
0.00521746 0.129771 0.03612 4 1 0
0.00521745 0.12954 0.0362172 4 1 0
0.00521744 0.129309 0.0363146 4 1 0
0.00521741 0.129079 0.0364123 4 1 0
0.00521738 0.128848 0.0365099 4 1 0
0.00521734 0.128619 0.0366077 4 1 0
0.00521728 0.128389 0.0367057 4 1 0
0.00521722 0.12816 0.0368038 4 1 0
0.00521714 0.12793 0.0369022 4 1 0
0.00521706 0.127702 0.0370007 4 1 0
0.00521696 0.127473 0.0370995 4 1 0
0.00521685 0.127245 0.0371984 4 1 0
0.00521674 0.127017 0.0372976 4 1 0
0.00521661 0.126789 0.0373969 4 1 0
0.00521647 0.126562 0.0374964 4 1 0
0.00521632 0.126335 0.0375961 4 1 0
0.00521616 0.126108 0.037696 4 1 0
0.00521599 0.125882 0.0377961 4 1 0
0.00521581 0.125655 0.0378964 4 1 0
0.00521562 0.125429 0.0379968 4 1 0
0.00521542 0.125203 0.0380975 4 1 0
0.0052152 0.124977 0.0381983 4 1 0
0.00521497 0.124752 0.0382994 4 1 0
0.00521474 0.124528 0.0384006 4 1 0
0.00521449 0.124302 0.038502 4 1 0
0.00521422 0.124078 0.0386036 4 1 0
0.00521395 0.123854 0.0387053 4 1 0
0.00521367 0.12363 0.0388072 4 1 0
0.00521337 0.123407 0.0389092 4 1 0
0.00521306 0.123183 0.0390114 4 1 0
0.00521274 0.122961 0.0391139 4 1 0
0.00521241 0.122738 0.0392165 4 1 0
0.00521206 0.122516 0.0393193 4 1 0
0.0052117 0.122294 0.0394222 4 1 0
0.00521133 0.122072 0.0395254 4 1 0
0.00521095 0.12185 0.0396287 4 1 0
0.00521056 0.121629 0.0397323 4 1 0
0.00521015 0.121408 0.0398361 4 1 0
0.00520973 0.121187 0.03994 4 1 0
0.00520929 0.120967 0.0400442 4 1 0
0.00520884 0.120746 0.0401485 4 1 0
0.00520838 0.120526 0.0402531 4 1 0
0.00520791 0.120307 0.0403578 4 1 0
0.00520742 0.120087 0.0404627 4 1 0
0.00520692 0.119868 0.0405679 4 1 0
0.0052064 0.119649 0.0406731 4 1 0
0.00520587 0.11943 0.0407786 4 1 0
0.00520533 0.119212 0.0408843 4 1 0
0.00520477 0.118994 0.0409902 4 1 0
0.0052042 0.118776 0.0410963 4 1 0
0.00520361 0.118558 0.0412026 4 1 0
0.00520301 0.118341 0.041309 4 1 0
0.00520239 0.118124 0.0414157 4 1 0
0.00520176 0.117907 0.0415225 4 1 0
0.00520111 0.11769 0.0416295 4 1 0
0.00520045 0.117474 0.0417367 4 1 0
0.00519978 0.117258 0.041844 4 1 0
0.00519908 0.117043 0.0419517 4 1 0
0.00519838 0.116827 0.0420594 4 1 0
0.00519765 0.116612 0.0421673 4 1 0
0.00519691 0.116397 0.0422754 4 1 0
0.00519616 0.116182 0.0423838 4 1 0
0.00519538 0.115968 0.0424924 4 1 0
0.00519459 0.115754 0.0426008 4 1 0
0.00519379 0.11554 0.0427098 4 1 0
0.00519297 0.115326 0.042819 4 1 0
0.00519213 0.115113 0.0429281 4 1 0
0.00519127 0.1149 0.0430376 4 1 0
0.0051904 0.114687 0.0431473 4 1 0
0.0051895 0.114474 0.0432572 4 1 0
0.0051886 0.114261 0.0433673 4 1 0
0.00518767 0.114049 0.0434776 4 1 0
0.00518672 0.113837 0.0435881 4 1 0
0.00518576 0.113626 0.0436988 4 1 0
0.00518478 0.113414 0.0438098 4 1 0
0.00518377 0.113204 0.043921 4 1 0
0.00518275 0.112993 0.0440324 4 1 0
0.00518171 0.112783 0.0441438 4 1 0
0.00518066 0.112573 0.0442554 4 1 0
0.00517958 0.112363 0.0443672 4 1 0
0.00517848 0.112153 0.0444792 4 1 0
0.00517736 0.111943 0.0445917 4 1 0
0.00517622 0.111734 0.0447042 4 1 0
0.00517506 0.111525 0.0448167 4 1 0
0.00517388 0.111316 0.0449293 4 1 0
0.00517268 0.111108 0.0450423 4 1 0
0.00517146 0.110899 0.0451556 4 1 0
0.00517021 0.110691 0.0452691 4 1 0
0.00516894 0.110483 0.0453829 4 1 0
0.00516766 0.110276 0.0454968 4 1 0
0.00516634 0.110069 0.0456111 4 1 0
0.00516501 0.109862 0.0457253 4 1 0
0.00516365 0.109655 0.0458397 4 1 0
0.00516227 0.109449 0.0459543 4 1 0
0.00516087 0.109243 0.0460691 4 1 0
0.00515944 0.109037 0.0461841 4 1 0
0.00515799 0.108831 0.0462995 4 1 0
0.00515651 0.108625 0.0464149 4 1 0
0.00515501 0.10842 0.0465306 4 1 0
0.00515348 0.108215 0.0466464 4 1 0
0.00515193 0.10801 0.0467625 4 1 0
0.00515035 0.107806 0.0468788 4 1 0
0.00514874 0.107601 0.0469956 4 1 0
0.00514711 0.107397 0.0471124 4 1 0
0.00514545 0.107193 0.0472294 4 1 0
0.00514376 0.10699 0.0473464 4 1 0
0.00514205 0.106787 0.0474637 4 1 0
0.00514031 0.106584 0.0475812 4 1 0
0.00513854 0.106381 0.0476989 4 1 0
0.00513674 0.106178 0.0478168 4 1 0
0.00513491 0.105976 0.047935 4 1 0
0.00513305 0.105774 0.0480534 4 1 0
0.00513116 0.105572 0.048172 4 1 0
0.00512923 0.10537 0.0482908 4 1 0
0.00512728 0.105169 0.0484099 4 1 0
0.0051253 0.104968 0.0485292 4 1 0
0.00512328 0.104767 0.0486487 4 1 0
0.00512123 0.104567 0.0487684 4 1 0
0.00511915 0.104366 0.0488882 4 1 0
0.00511703 0.104166 0.0490082 4 1 0
0.00511488 0.103966 0.0491284 4 1 0
0.0051127 0.103767 0.0492489 4 1 0
0.00511047 0.103567 0.0493696 4 1 0
0.00510822 0.103368 0.0494906 4 1 0
0.00510592 0.103169 0.0496118 4 1 0
0.00510359 0.10297 0.0497332 4 1 0
0.00510122 0.102771 0.0498547 4 1 0
0.00509882 0.102573 0.0499766 4 1 0
0.00509637 0.102375 0.0500986 4 1 0
0.00509388 0.102177 0.050221 4 1 0
0.00509136 0.10198 0.0503434 4 1 0
0.00508879 0.101783 0.050466 4 1 0
0.00508618 0.101586 0.0505888 4 1 0
0.00508353 0.101389 0.0507119 4 1 0
0.00508083 0.101192 0.0508353 4 1 0
0.00507809 0.100996 0.0509589 4 1 0
0.00507531 0.100799 0.0510827 4 1 0
0.00507248 0.100604 0.0512068 4 1 0
0.0050696 0.100407 0.051331 4 1 0
0.00506668 0.100212 0.0514555 4 1 0
0.0050637 0.100016 0.0515803 4 1 0
0.00506068 0.0998219 0.051705 4 1 0
0.00505761 0.099627 0.0518301 4 1 0
0.00505449 0.0994324 0.0519554 4 1 0
0.00505131 0.0992382 0.0520809 4 1 0
0.00504808 0.099044 0.0522068 4 1 0
0.0050448 0.0988501 0.0523329 4 1 0
0.00504146 0.0986562 0.0524592 4 1 0
0.00503807 0.0984627 0.0525858 4 1 0
0.00503462 0.0982694 0.0527126 4 1 0
0.00503111 0.098076 0.0528395 4 1 0
0.00502754 0.0978831 0.0529668 4 1 0
0.00502391 0.0976905 0.0530941 4 1 0
0.00502022 0.0974985 0.0532215 4 1 0
0.00501646 0.0973063 0.0533494 4 1 0
0.00501264 0.0971143 0.0534775 4 1 0
0.00500875 0.0969226 0.053606 4 1 0
0.0050048 0.096731 0.0537347 4 1 0
0.00500077 0.0965397 0.0538636 4 1 0
0.00499668 0.096348 0.0539926 4 1 0
0.00499251 0.0961571 0.0541219 4 1 0
0.00498827 0.0959664 0.0542514 4 1 0
0.00498396 0.0957764 0.0543811 4 1 0
0.00497957 0.0955861 0.0545111 4 1 0
0.00497509 0.095396 0.0546414 4 1 0
0.00497054 0.0952061 0.054772 4 1 0
0.00496591 0.0950164 0.0549028 4 1 0
0.00496119 0.0948269 0.0550338 4 1 0
0.00495638 0.0946372 0.0551651 4 1 0
0.00495149 0.0944481 0.0552966 4 1 0
0.00494651 0.0942592 0.0554283 4 1 0
0.00494143 0.0940705 0.0555603 4 1 0
0.00493626 0.0938821 0.0556925 4 1 0
0.00493099 0.0936938 0.055825 4 1 0
0.00492562 0.0935061 0.0559578 4 1 0
0.00492015 0.0933182 0.0560909 4 1 0
0.00491457 0.0931305 0.0562242 4 1 0
0.00490888 0.0929429 0.0563577 4 1 0
0.00490309 0.0927556 0.0564915 4 1 0
0.00489718 0.0925685 0.0566255 4 1 0
0.00489116 0.0923814 0.0567597 4 1 0
0.00488501 0.0921946 0.0568943 4 1 0
0.00487874 0.0920081 0.0570291 4 1 0
0.00487235 0.091822 0.0571643 4 1 0
0.00486583 0.0916358 0.0572997 4 1 0
0.00485917 0.0914498 0.0574354 4 1 0
0.00485238 0.0912636 0.0575713 4 1 0
0.00484545 0.0910779 0.0577074 4 1 0
0.00483837 0.0908924 0.0578439 4 1 0
0.00483114 0.0907075 0.0579806 4 1 0
0.00482376 0.0905224 0.0581176 4 1 0
0.00481622 0.0903374 0.0582549 4 1 0
0.00480852 0.0901526 0.0583927 4 1 0
0.00480065 0.089968 0.0585306 4 1 0
0.0047926 0.0897835 0.0586687 4 1 0
0.00478438 0.0895992 0.0588069 4 1 0
0.00477598 0.0894151 0.0589456 4 1 0
0.00476739 0.0892312 0.0590845 4 1 0
0.0047586 0.0890474 0.0592239 4 1 0
0.0047496 0.0888637 0.0593635 4 1 0
0.0047404 0.0886802 0.0595034 4 1 0
0.00473099 0.0884966 0.0596437 4 1 0
0.00472135 0.0883134 0.0597842 4 1 0
0.00471148 0.0881304 0.0599249 4 1 0
0.00470137 0.0879477 0.0600659 4 1 0
0.00469102 0.0877649 0.0602072 4 1 0
0.00468041 0.0875823 0.0603489 4 1 0
0.00466954 0.0873999 0.060491 4 1 0
0.00465839 0.0872176 0.0606333 4 1 0
0.00464696 0.0870354 0.060776 4 1 0
0.00463523 0.086853 0.060919 4 1 0
0.0046232 0.0866711 0.0610623 4 1 0
0.00461085 0.0864894 0.061206 4 1 0
0.00459818 0.0863077 0.0613499 4 1 0
0.00458516 0.0861261 0.0614942 4 1 0
0.00457178 0.0859447 0.0616389 4 1 0
0.00455804 0.0857634 0.0617839 4 1 0
0.00454391 0.0855822 0.0619292 4 1 0
0.00452938 0.0854011 0.0620748 4 1 0
0.00451444 0.08522 0.0622208 4 1 0
0.00449906 0.0850391 0.0623671 4 1 0
0.00448323 0.0848583 0.0625138 4 1 0
0.00446692 0.0846775 0.0626608 4 1 0
0.00445012 0.0844969 0.0628082 4 1 0
0.00443281 0.0843163 0.062956 4 1 0
0.00441497 0.0841357 0.0631041 4 1 0
0.00439656 0.0839554 0.0632526 4 1 0
0.00437756 0.0837752 0.0634014 4 1 0
0.00435795 0.0835951 0.0635506 4 1 0
0.00433769 0.0834151 0.0637001 4 1 0
0.00431676 0.0832351 0.06385 4 1 0
0.00429513 0.0830551 0.0640002 4 1 0
0.00427275 0.0828752 0.0641508 4 1 0
0.0042496 0.0826955 0.0643018 4 1 0
0.00422563 0.082516 0.0644531 4 1 0
0.0042008 0.0823365 0.0646047 4 1 0
0.00417508 0.0821571 0.0647568 4 1 0
0.00414841 0.0819778 0.064909 4 1 0
0.00412074 0.0817987 0.0650615 4 1 0
0.00409204 0.0816198 0.0652143 4 1 0
0.00406223 0.0814409 0.0653674 4 1 0
0.00403127 0.0812624 0.0655205 4 1 0
0.0039991 0.0810842 0.0656738 4 1 0
0.00396565 0.0809063 0.0658273 4 1 0
0.00393087 0.0807287 0.0659806 4 1 0
0.00389468 0.0805516 0.0661339 4 1 0
0.00385703 0.080375 0.0662868 4 1 0
0.00381784 0.0801992 0.0664395 4 1 0
0.00377704 0.0800243 0.0665913 4 1 0
0.00373459 0.0798503 0.0667424 4 1 0
0.00369042 0.0796779 0.0668921 4 1 0
0.00364449 0.0795071 0.06704 4 1 0
0.00359679 0.0793388 0.0671853 4 1 0
0.00354733 0.0791734 0.0673272 4 1 0
0.00349618 0.0790121 0.0674643 4 1 0
0.00344353 0.0788565 0.0675946 4 1 0
0.0033897 0.0787088 0.0677155 4 1 0
0.0033353 0.0785721 0.0678229 4 1 0
0.00328129 0.0784509 0.0679118 4 1 0
0.00322915 0.0783507 0.0679759 4 1 0
0.00318064 0.0782767 0.0680099 4 1 0
0.00313738 0.078232 0.0680109 4 1 0
0.00310016 0.0782164 0.0679805 4 1 0
0.00306882 0.0782259 0.0679233 4 1 0
0.00304262 0.0782558 0.0678449 4 1 0
0.00302064 0.0783016 0.0677504 4 1 0
0.00300207 0.0783599 0.0676437 4 1 0
0.00298623 0.0784276 0.0675277 4 1 0
0.00297258 0.0785026 0.067405 4 1 0
0.00296071 0.0785833 0.0672766 4 1 0
0.00295029 0.0786682 0.0671447 4 1 0
0.00294106 0.0787567 0.0670099 4 1 0
0.00293284 0.0788477 0.0668728 4 1 0
0.00292545 0.0789405 0.0667342 4 1 0
0.00291877 0.0790347 0.0665948 4 1 0
0.0029127 0.0791299 0.0664548 4 1 0
0.00290715 0.0792257 0.0663147 4 1 0
0.00290205 0.0793218 0.0661749 4 1 0
0.00289734 0.0794176 0.0660353 4 1 0
0.00289298 0.0795135 0.0658961 4 1 0
0.00288893 0.0796088 0.0657576 4 1 0
0.00288514 0.0797034 0.0656203 4 1 0
0.00288159 0.0797972 0.0654842 4 1 0
0.00287825 0.07989 0.0653491 4 1 0
0.0028751 0.0799816 0.0652151 4 1 0
0.00287213 0.0800721 0.0650828 4 1 0
0.0028693 0.0801611 0.0649523 4 1 0
0.00286662 0.0802487 0.0648228 4 1 0
0.00286406 0.0803343 0.0646953 4 1 0
0.00286161 0.0804185 0.0645698 4 1 0
0.00285927 0.0805008 0.0644462 4 1 0
0.00285702 0.0805812 0.0643243 4 1 0
0.00285486 0.0806593 0.0642051 4 1 0
0.00285278 0.0807351 0.0640872 4 1 0
0.00285076 0.0808085 0.0639724 4 1 0
0.00284882 0.0808794 0.0638594 4 1 0
0.00284693 0.0809474 0.0637491 4 1 0
0.00284511 0.0810128 0.0636414 4 1 0
0.00284333 0.0810756 0.0635363 4 1 0
0.0028416 0.0811353 0.0634343 4 1 0
0.00283991 0.0811912 0.0633347 4 1 0
0.00283826 0.0812445 0.0632389 4 1 0
0.00283665 0.081294 0.0631452 4 1 0
0.00283507 0.0813397 0.0630559 4 1 0
0.00283352 0.0813818 0.0629689 4 1 0
0.002832 0.0814197 0.0628864 4 1 0
0.00283051 0.0814533 0.0628068 4 1 0
0.00282903 0.0814826 0.0627321 4 1 0
0.00282759 0.0815079 0.0626602 4 1 0
0.00282616 0.0815278 0.0625935 4 1 0
0.00282475 0.0815436 0.0625301 4 1 0
0.00282335 0.0815542 0.0624724 4 1 0
0.00282198 0.0815593 0.0624179 4 1 0
0.00282061 0.0815591 0.0623695 4 1 0
0.00281926 0.0815541 0.0623248 4 1 0
0.00281792 0.0815429 0.062286 4 1 0
0.00281659 0.0815261 0.0622519 4 1 0
0.00281527 0.081504 0.0622235 4 1 0
0.00281396 0.0814757 0.0622001 4 1 0
0.00281265 0.0814412 0.0621823 4 1 0
0.00281135 0.0814015 0.0621701 4 1 0
0.00281006 0.0813556 0.0621633 4 1 0
0.00280877 0.0813033 0.0621626 4 1 0
0.00280748 0.0812461 0.0621669 4 1 0
0.0028062 0.0811826 0.0621776 4 1 0
0.00280492 0.0811459 0.0621928 4 1 0
