0.00399122 0.441125 0.00135403 3 1 0
0.00399275 0.440728 0.00135946 3 1 0
0.00399429 0.440328 0.00136493 3 1 0
0.00399584 0.439924 0.00137044 3 1 0
0.00399739 0.439522 0.001376 3 1 0
0.00399896 0.439119 0.0013816 3 1 0
0.00400054 0.438712 0.00138725 3 1 0
0.00400212 0.438305 0.00139294 3 1 0
0.00400371 0.437897 0.00139867 3 1 0
0.00400531 0.437487 0.00140444 3 1 0
0.00400692 0.437076 0.00141026 3 1 0
0.00400854 0.436663 0.00141611 3 1 0
0.00401017 0.436241 0.00142201 3 1 0
0.0040118 0.435828 0.00142796 3 1 0
0.00401344 0.435413 0.00143394 3 1 0
0.00401509 0.434988 0.00143998 3 1 0
0.00401674 0.434572 0.00144604 3 1 0
0.0040184 0.434154 0.00145216 3 1 0
0.00402007 0.433738 0.00145842 3 1 0
0.00402175 0.433315 0.00146461 3 1 0
0.00402343 0.432891 0.00147085 3 1 0
0.00402512 0.432464 0.00147701 3 1 0
0.00402681 0.432042 0.00148332 3 1 0
0.00402851 0.431619 0.00148968 3 1 0
0.00403022 0.431186 0.00149605 3 1 0
0.00403194 0.430761 0.00150249 3 1 0
0.00403366 0.430336 0.00150897 3 1 0
0.00403538 0.429909 0.00151547 3 1 0
0.00403711 0.429477 0.00152203 3 1 0
0.00403885 0.429045 0.00152862 3 1 0
0.00404059 0.428622 0.00153525 3 1 0
0.00404234 0.42819 0.00154193 3 1 0
0.0040441 0.427756 0.00154864 3 1 0
0.00404585 0.427326 0.00155539 3 1 0
0.00404762 0.426892 0.00156219 3 1 0
0.00404939 0.426456 0.00156902 3 1 0
0.00405116 0.426025 0.00157589 3 1 0
0.00405294 0.425589 0.0015828 3 1 0
0.00405473 0.425151 0.00158975 3 1 0
0.00405652 0.424716 0.00159674 3 1 0
0.00405831 0.424278 0.00160377 3 1 0
0.00406011 0.42384 0.00161084 3 1 0
0.00406191 0.423402 0.00161795 3 1 0
0.00406372 0.422961 0.00162509 3 1 0
0.00406553 0.422521 0.00163228 3 1 0
0.00406735 0.42209 0.00163951 3 1 0
0.00406917 0.421649 0.00164678 3 1 0
0.004071 0.421207 0.00165408 3 1 0
0.00407282 0.42077 0.00166143 3 1 0
0.00407466 0.420328 0.00166881 3 1 0
0.00407649 0.419885 0.00167624 3 1 0
0.00407834 0.419449 0.0016837 3 1 0
0.00408018 0.419006 0.0016912 3 1 0
0.00408203 0.418563 0.00169875 3 1 0
0.00408388 0.418124 0.00170633 3 1 0
0.00408574 0.41768 0.00171395 3 1 0
0.0040876 0.417236 0.00172161 3 1 0
0.00408946 0.416795 0.00172931 3 1 0
0.00409133 0.41635 0.00173705 3 1 0
0.0040932 0.415905 0.00174483 3 1 0
0.00409508 0.415464 0.00175265 3 1 0
0.00409695 0.415019 0.00176051 3 1 0
0.00409883 0.414573 0.00176841 3 1 0
0.00410072 0.414134 0.00177637 3 1 0
0.00410261 0.413688 0.00178435 3 1 0
0.0041045 0.413242 0.00179237 3 1 0
0.00410639 0.412801 0.00180046 3 1 0
0.00410829 0.412355 0.00180856 3 1 0
0.00411019 0.411909 0.0018167 3 1 0
0.00411209 0.411466 0.00182486 3 1 0
0.004114 0.41102 0.00183306 3 1 0
0.00411591 0.410574 0.00184129 3 1 0
0.00411782 0.41013 0.00184953 3 1 0
0.00411973 0.409684 0.00185785 3 1 0
0.00412165 0.409238 0.00186621 3 1 0
0.00412357 0.408793 0.00187457 3 1 0
0.00412549 0.408347 0.00188301 3 1 0
0.00412742 0.4079 0.00189149 3 1 0
0.00412935 0.407456 0.00189997 3 1 0
0.00413128 0.40701 0.00190854 3 1 0
0.00413321 0.406564 0.00191714 3 1 0
0.00413515 0.406119 0.00192579 3 1 0
0.00413708 0.405672 0.00193448 3 1 0
0.00413903 0.405226 0.0019432 3 1 0
0.00414097 0.404781 0.00195198 3 1 0
0.00414291 0.404334 0.00196078 3 1 0
0.00414486 0.403888 0.00196963 3 1 0
0.00414681 0.403442 0.00197853 3 1 0
0.00414877 0.402996 0.00198745 3 1 0
0.00415072 0.402549 0.00199642 3 1 0
0.00415268 0.402098 0.00200544 3 1 0
0.00415464 0.40165 0.00201448 3 1 0
0.0041566 0.401204 0.00202357 3 1 0
0.00415856 0.400766 0.0020327 3 1 0
0.00416053 0.40032 0.00204187 3 1 0
0.0041625 0.399873 0.00205109 3 1 0
0.00416447 0.399429 0.00206034 3 1 0
0.00416644 0.398983 0.00206964 3 1 0
0.00416841 0.398536 0.00207897 3 1 0
0.00417039 0.398094 0.00208835 3 1 0
0.00417237 0.397648 0.00209777 3 1 0
0.00417435 0.397202 0.00210723 3 1 0
0.00417633 0.39676 0.00211673 3 1 0
0.00417831 0.396314 0.00212628 3 1 0
0.0041803 0.395869 0.00213587 3 1 0
0.00418228 0.395425 0.0021455 3 1 0
0.00418427 0.39498 0.00215517 3 1 0
0.00418626 0.394535 0.00216488 3 1 0
0.00418826 0.394092 0.00217464 3 1 0
0.00419025 0.393648 0.00218444 3 1 0
0.00419225 0.393204 0.00219429 3 1 0
0.00419424 0.39276 0.00220418 3 1 0
0.00419624 0.392316 0.00221411 3 1 0
0.00419825 0.391872 0.00222408 3 1 0
0.00420025 0.391429 0.00223411 3 1 0
0.00420225 0.390985 0.00224417 3 1 0
0.00420426 0.390542 0.00225427 3 1 0
0.00420627 0.390099 0.00226445 3 1 0
0.00420827 0.389657 0.00227464 3 1 0
0.00421028 0.389214 0.00228487 3 1 0
0.0042123 0.388769 0.0022952 3 1 0
0.00421431 0.388328 0.00230552 3 1 0
0.00421632 0.387886 0.00231588 3 1 0
0.00421834 0.387442 0.00232622 3 1 0
0.00422036 0.387002 0.00233664 3 1 0
0.00422238 0.386561 0.0023471 3 1 0
0.0042244 0.386117 0.00235753 3 1 0
0.00422642 0.385678 0.00236809 3 1 0
0.00422844 0.385237 0.00237869 3 1 0
0.00423047 0.38479 0.00238928 3 1 0
0.00423249 0.384352 0.00239997 3 1 0
0.00423452 0.383913 0.00241072 3 1 0
0.00423655 0.383471 0.0024215 3 1 0
0.00423858 0.383033 0.00243233 3 1 0
0.00424061 0.382595 0.0024432 3 1 0
0.00424264 0.382154 0.00245412 3 1 0
0.00424467 0.381716 0.00246508 3 1 0
0.00424671 0.381278 0.00247609 3 1 0
0.00424874 0.380836 0.00248715 3 1 0
0.00425078 0.380399 0.00249825 3 1 0
0.00425282 0.379962 0.00250939 3 1 0
0.00425486 0.379522 0.00252056 3 1 0
0.0042569 0.379085 0.00253178 3 1 0
0.00425894 0.378649 0.00254306 3 1 0
0.00426098 0.378212 0.00255438 3 1 0
0.00426302 0.377775 0.00256574 3 1 0
0.00426507 0.377339 0.00257715 3 1 0
0.00426711 0.376901 0.00258861 3 1 0
0.00426916 0.376465 0.00260011 3 1 0
0.0042712 0.37603 0.00261165 3 1 0
0.00427325 0.375591 0.00262325 3 1 0
0.0042753 0.375156 0.00263488 3 1 0
0.00427735 0.374722 0.00264657 3 1 0
0.0042794 0.374286 0.0026583 3 1 0
0.00428146 0.373852 0.00267008 3 1 0
0.00428351 0.373418 0.0026819 3 1 0
0.00428556 0.372982 0.0026938 3 1 0
0.00428762 0.372549 0.00270572 3 1 0
0.00428967 0.372116 0.00271769 3 1 0
0.00429173 0.371675 0.00272971 3 1 0
0.00429379 0.371243 0.00274178 3 1 0
0.00429584 0.370812 0.00275389 3 1 0
0.0042979 0.370381 0.00276601 3 1 0
0.00429996 0.36995 0.00277822 3 1 0
0.00430202 0.369519 0.00279047 3 1 0
0.00430408 0.369084 0.00280276 3 1 0
0.00430615 0.368654 0.0028151 3 1 0
0.00430821 0.368225 0.0028275 3 1 0
0.00431027 0.367791 0.00283995 3 1 0
0.00431234 0.367362 0.00285245 3 1 0
0.0043144 0.366933 0.00286499 3 1 0
0.00431647 0.366504 0.00287762 3 1 0
0.00431853 0.366075 0.00289026 3 1 0
0.0043206 0.365646 0.00290294 3 1 0
0.00432267 0.365214 0.00291553 3 1 0
0.00432474 0.364787 0.00292828 3 1 0
0.00432681 0.364359 0.00294108 3 1 0
0.00432887 0.363924 0.0029538 3 1 0
0.00433095 0.363498 0.0029667 3 1 0
0.00433302 0.363073 0.00297966 3 1 0
0.00433509 0.362646 0.00299267 3 1 0
0.00433716 0.36222 0.00300571 3 1 0
0.00433923 0.361795 0.00301881 3 1 0
0.0043413 0.361369 0.00303201 3 1 0
0.00434338 0.360944 0.0030452 3 1 0
0.00434545 0.360519 0.00305844 3 1 0
0.00434753 0.360093 0.00307177 3 1 0
0.0043496 0.359669 0.00308511 3 1 0
0.00435168 0.359244 0.00309849 3 1 0
0.00435376 0.358819 0.00311195 3 1 0
0.00435583 0.358396 0.00312543 3 1 0
0.00435791 0.357972 0.00313896 3 1 0
0.00435999 0.357549 0.00315256 3 1 0
0.00436206 0.357126 0.00316619 3 1 0
0.00436414 0.356703 0.00317987 3 1 0
0.00436622 0.356281 0.00319361 3 1 0
0.0043683 0.355859 0.00320739 3 1 0
0.00437038 0.355437 0.00322122 3 1 0
0.00437246 0.355016 0.00323509 3 1 0
0.00437454 0.354595 0.00324903 3 1 0
0.00437662 0.354175 0.00326301 3 1 0
0.00437871 0.353754 0.00327704 3 1 0
0.00438079 0.353335 0.00329113 3 1 0
0.00438287 0.352916 0.00330527 3 1 0
0.00438495 0.352496 0.00331946 3 1 0
0.00438703 0.352077 0.0033337 3 1 0
0.00438912 0.351659 0.003348 3 1 0
0.0043912 0.351241 0.00336234 3 1 0
0.00439329 0.350823 0.00337673 3 1 0
0.00439537 0.350406 0.00339118 3 1 0
0.00439745 0.349989 0.00340567 3 1 0
0.00439954 0.349572 0.00342022 3 1 0
0.00440162 0.349156 0.00343482 3 1 0
0.00440371 0.34874 0.00344948 3 1 0
0.00440579 0.348324 0.00346418 3 1 0
0.00440788 0.347909 0.00347894 3 1 0
0.00440996 0.347494 0.00349377 3 1 0
0.00441205 0.347079 0.00350863 3 1 0
0.00441414 0.346664 0.00352355 3 1 0
0.00441622 0.346251 0.00353859 3 1 0
0.00441831 0.345837 0.00355362 3 1 0
0.0044204 0.345424 0.0035687 3 1 0
0.00442248 0.345013 0.00358378 3 1 0
0.00442457 0.3446 0.00359893 3 1 0
0.00442666 0.344188 0.00361413 3 1 0
0.00442875 0.343777 0.00362936 3 1 0
0.00443083 0.343366 0.00364467 3 1 0
0.00443292 0.342955 0.00366003 3 1 0
0.00443501 0.342545 0.00367566 3 1 0
0.0044371 0.342134 0.00369111 3 1 0
0.00443918 0.341724 0.00370662 3 1 0
0.00444127 0.341315 0.00372222 3 1 0
0.00444336 0.340906 0.00373787 3 1 0
0.00444545 0.340496 0.00375359 3 1 0
0.00444754 0.340089 0.00376922 3 1 0
0.00444962 0.33968 0.00378503 3 1 0
0.00445171 0.339271 0.0038009 3 1 0
0.0044538 0.338867 0.00381672 3 1 0
0.00445589 0.338459 0.00383269 3 1 0
0.00445798 0.338052 0.00384872 3 1 0
0.00446007 0.337646 0.00386473 3 1 0
0.00446215 0.337239 0.00388086 3 1 0
0.00446424 0.336833 0.00389705 3 1 0
0.00446633 0.336431 0.00391325 3 1 0
0.00446842 0.336025 0.00392954 3 1 0
0.00447051 0.33562 0.00394589 3 1 0
0.0044726 0.335219 0.00396229 3 1 0
0.00447468 0.334814 0.00397875 3 1 0
0.00447677 0.334412 0.00399525 3 1 0
0.00447886 0.33401 0.0040117 3 1 0
0.00448095 0.333607 0.00402826 3 1 0
0.00448303 0.333208 0.00404488 3 1 0
0.00448512 0.332807 0.00406149 3 1 0
0.00448721 0.332408 0.00407822 3 1 0
0.0044893 0.33201 0.00409501 3 1 0
0.00449138 0.331611 0.00411189 3 1 0
0.00449347 0.331213 0.00412878 3 1 0
0.00449556 0.330814 0.00414573 3 1 0
0.00449764 0.330412 0.00416272 3 1 0
0.00449973 0.330015 0.00417977 3 1 0
0.00450182 0.329619 0.00419689 3 1 0
0.0045039 0.329217 0.00421403 3 1 0
0.00450599 0.32882 0.00423125 3 1 0
0.00450807 0.328426 0.00424854 3 1 0
0.00451016 0.328031 0.00426587 3 1 0
0.00451224 0.327634 0.00428326 3 1 0
0.00451433 0.327237 0.0043007 3 1 0
0.00451641 0.326849 0.00431832 3 1 0
0.0045185 0.326454 0.00433589 3 1 0
0.00452058 0.32606 0.00435351 3 1 0
0.00452266 0.325662 0.00437102 3 1 0
0.00452475 0.32527 0.00438872 3 1 0
0.00452683 0.324879 0.00440648 3 1 0
0.00452891 0.324487 0.00442432 3 1 0
0.00453099 0.324094 0.00444218 3 1 0
0.00453307 0.323703 0.0044601 3 1 0
0.00453516 0.323312 0.00447808 3 1 0
0.00453724 0.322923 0.0044961 3 1 0
0.00453932 0.322535 0.00451418 3 1 0
0.0045414 0.322145 0.00453236 3 1 0
0.00454348 0.321758 0.00455054 3 1 0
0.00454556 0.321371 0.00456877 3 1 0
0.00454763 0.320983 0.00458714 3 1 0
0.00454971 0.320597 0.00460547 3 1 0
0.00455179 0.320211 0.00462386 3 1 0
0.00455387 0.319826 0.00464238 3 1 0
0.00455594 0.31944 0.00466087 3 1 0
0.00455802 0.319055 0.00467941 3 1 0
0.0045601 0.31867 0.00469805 3 1 0
0.00456217 0.318286 0.00471669 3 1 0
0.00456425 0.317902 0.0047354 3 1 0
0.00456632 0.317518 0.00475414 3 1 0
0.00456839 0.317135 0.00477295 3 1 0
0.00457047 0.316753 0.00479181 3 1 0
0.00457254 0.316371 0.00481073 3 1 0
0.00457461 0.31599 0.0048297 3 1 0
0.00457668 0.315609 0.00484872 3 1 0
0.00457875 0.315228 0.00486796 3 1 0
0.00458082 0.314848 0.00488707 3 1 0
0.00458289 0.314468 0.00490623 3 1 0
0.00458496 0.314089 0.00492563 3 1 0
0.00458703 0.313709 0.00494489 3 1 0
0.00458909 0.31333 0.0049642 3 1 0
0.00459116 0.312955 0.00498358 3 1 0
0.00459322 0.312577 0.00500304 3 1 0
0.00459529 0.3122 0.00502255 3 1 0
0.00459735 0.311823 0.00504196 3 1 0
0.00459942 0.311447 0.00506156 3 1 0
0.00460148 0.311074 0.00508122 3 1 0
0.00460354 0.310705 0.00510085 3 1 0
0.0046056 0.310331 0.0051206 3 1 0
0.00460766 0.309958 0.0051404 3 1 0
0.00460972 0.309586 0.00516025 3 1 0
0.00461177 0.309213 0.00518015 3 1 0
0.00461383 0.308841 0.00520009 3 1 0
0.00461588 0.308474 0.00521996 3 1 0
0.00461794 0.308103 0.00523995 3 1 0
0.00461999 0.307734 0.00525999 3 1 0
0.00462204 0.307366 0.0052801 3 1 0
0.00462409 0.306997 0.00530024 3 1 0
0.00462614 0.306629 0.00532041 3 1 0
0.00462819 0.306262 0.00534069 3 1 0
0.00463024 0.305894 0.005361 3 1 0
0.00463229 0.305528 0.00538135 3 1 0
0.00463433 0.305162 0.00540158 3 1 0
0.00463638 0.304799 0.00542201 3 1 0
0.00463842 0.304436 0.00544249 3 1 0
0.00464046 0.304068 0.00546293 3 1 0
0.0046425 0.303708 0.00548348 3 1 0
0.00464454 0.303347 0.00550408 3 1 0
0.00464658 0.302984 0.00552466 3 1 0
0.00464861 0.302624 0.00554534 3 1 0
0.00465064 0.302266 0.00556605 3 1 0
0.00465268 0.301905 0.00558674 3 1 0
0.00465471 0.301548 0.00560752 3 1 0
0.00465674 0.301192 0.00562834 3 1 0
0.00465877 0.300833 0.0056492 3 1 0
0.00466079 0.300479 0.00567008 3 1 0
0.00466282 0.300125 0.005691 3 1 0
0.00466484 0.299769 0.00571205 3 1 0
0.00466686 0.299416 0.00573302 3 1 0
0.00466888 0.299065 0.00575402 3 1 0
0.00467089 0.29871 0.00577523 3 1 0
0.00467291 0.29836 0.00579628 3 1 0
0.00467492 0.298011 0.00581737 3 1 0
0.00467693 0.29766 0.00583864 3 1 0
0.00467894 0.297312 0.00585983 3 1 0
0.00468095 0.296966 0.00588098 3 1 0
0.00468295 0.296619 0.00590206 3 1 0
0.00468495 0.296274 0.00592331 3 1 0
0.00468695 0.295929 0.00594459 3 1 0
0.00468895 0.295584 0.00596572 3 1 0
0.00469094 0.295242 0.00598703 3 1 0
0.00469293 0.2949 0.00600835 3 1 0
0.00469492 0.294559 0.00602958 3 1 0
0.0046969 0.294219 0.00605092 3 1 0
0.00469889 0.29388 0.00607228 3 1 0
0.00470087 0.293542 0.00609357 3 1 0
0.00470284 0.293205 0.00611494 3 1 0
0.00470481 0.292869 0.00613631 3 1 0
0.00470678 0.292535 0.00615764 3 1 0
0.00470875 0.292201 0.00617901 3 1 0
0.00471071 0.291868 0.00620038 3 1 0
0.00471267 0.291533 0.00622173 3 1 0
0.00471463 0.291202 0.00624308 3 1 0
0.00471658 0.290875 0.00626442 3 1 0
0.00471852 0.290551 0.00628577 3 1 0
0.00472046 0.290226 0.00630707 3 1 0
0.0047224 0.289902 0.00632836 3 1 0
0.00472433 0.289575 0.00634965 3 1 0
0.00472626 0.289255 0.00637089 3 1 0
0.00472818 0.288937 0.00639209 3 1 0
0.0047301 0.288617 0.0064133 3 1 0
0.00473201 0.288299 0.00643442 3 1 0
0.00473392 0.287985 0.0064555 3 1 0
0.00473582 0.287672 0.00647659 3 1 0
0.00473771 0.287361 0.00649756 3 1 0
0.0047396 0.287053 0.00651847 3 1 0
0.00474147 0.286747 0.00653938 3 1 0
0.00474335 0.286441 0.00656015 3 1 0
0.00474521 0.286137 0.00658084 3 1 0
0.00474707 0.285838 0.00660153 3 1 0
0.00474891 0.285538 0.00662204 3 1 0
0.00475075 0.285241 0.00664245 3 1 0
0.00475258 0.284948 0.00666285 3 1 0
0.0047544 0.284658 0.00668303 3 1 0
0.00475621 0.284371 0.00670308 3 1 0
0.00475801 0.284085 0.00672306 3 1 0
0.00475979 0.283802 0.00674282 3 1 0
0.00476156 0.283521 0.00676242 3 1 0
0.00476332 0.283248 0.00678193 3 1 0
0.00476507 0.282974 0.00680117 3 1 0
0.0047668 0.282704 0.0068202 3 1 0
0.00476852 0.282438 0.00683912 3 1 0
0.00477022 0.282178 0.0068577 3 1 0
0.0047719 0.281922 0.00687604 3 1 0
0.00477356 0.281669 0.00689415 3 1 0
0.0047752 0.281419 0.00691192 3 1 0
0.00477682 0.281178 0.00692938 3 1 0
0.00477842 0.280941 0.00694659 3 1 0
0.00477999 0.280708 0.00696335 3 1 0
0.00478154 0.28048 0.00697973 3 1 0
0.00478306 0.28026 0.00699576 3 1 0
0.00478455 0.280047 0.00701128 3 1 0
0.00478601 0.279842 0.00702633 3 1 0
0.00478743 0.27964 0.00704092 3 1 0
0.00478882 0.27945 0.00705492 3 1 0
0.00479017 0.279267 0.00706834 3 1 0
0.00479148 0.279092 0.00708118 3 1 0
0.00479276 0.278927 0.00709332 4 1 0
0.00479398 0.278772 0.00710477 3 1 0
0.00479515 0.278624 0.00711542 4 1 0
0.00479626 0.278489 0.00712536 3 1 0
0.00479732 0.278367 0.00713442 4 1 0
0.00479831 0.278253 0.00714267 3 1 0
0.00479925 0.278152 0.00714998 4 1 0
0.00480013 0.278064 0.00715641 3 1 0
0.00480014 0.278065 0.00715642 4 1 0
0.00480095 0.277989 0.00716186 4 1 0
0.00480168 0.277928 0.00716626 4 1 0
0.00480234 0.277881 0.00716968 3 1 0
0.00480293 0.277848 0.00717206 3 1 0
0.00480345 0.277828 0.00717338 3 1 0
0.00480389 0.277821 0.00717357 3 1 0
0.00480426 0.277829 0.00717275 3 1 0
0.00480455 0.277853 0.00717086 3 1 0
0.00480476 0.27789 0.00716789 3 1 0
0.00480489 0.277941 0.00716391 3 1 0
0.00480495 0.278005 0.00715893 3 1 0
0.00480493 0.278083 0.00715295 3 1 0
0.00480484 0.278173 0.00714603 3 1 0
0.00480468 0.278276 0.0071382 3 1 0
0.00480445 0.278389 0.00712954 3 1 0
0.00480415 0.278514 0.00712 3 1 0
0.00480379 0.278651 0.00710967 3 1 0
0.00480337 0.278799 0.00709883 3 1 0
0.00480289 0.278956 0.00708703 3 1 0
0.00480235 0.279122 0.00707456 3 1 0
0.00480176 0.279297 0.00706164 3 1 0
0.00480112 0.27948 0.00704797 3 1 0
0.00480043 0.279671 0.00703373 3 1 0
0.0047997 0.279867 0.00701875 3 1 0
0.00479892 0.280073 0.00700354 3 1 0
0.0047981 0.280285 0.00698788 3 1 0
0.00479724 0.280501 0.00697194 3 1 0
0.00479635 0.280726 0.00695547 3 1 0
0.00479542 0.280956 0.00693864 3 1 0
0.00479445 0.281189 0.00692141 3 1 0
0.00479346 0.28143 0.00690392 3 1 0
0.00479243 0.281675 0.00688614 3 1 0
0.00479137 0.281924 0.00686792 3 1 0
0.00479029 0.282177 0.0068496 3 1 0
0.00478918 0.282434 0.00683104 3 1 0
0.00478805 0.282696 0.00681203 3 1 0
0.00478689 0.282961 0.00679303 3 1 0
0.00478571 0.28323 0.00677384 3 1 0
0.0047845 0.283503 0.00675453 3 1 0
0.00478328 0.283777 0.006735 3 1 0
0.00478204 0.284054 0.00671533 3 1 0
0.00478078 0.284336 0.00669544 3 1 0
0.0047795 0.284619 0.00667549 3 1 0
0.0047782 0.284905 0.00665542 3 1 0
0.00477688 0.285195 0.00663513 3 1 0
0.00477555 0.285486 0.00661483 3 1 0
0.00477421 0.285779 0.00659444 3 1 0
0.00477284 0.286076 0.00657393 3 1 0
0.00477147 0.286374 0.00655337 3 1 0
0.00477008 0.286673 0.00653274 3 1 0
0.00476868 0.286978 0.006512 3 1 0
0.00476726 0.287281 0.00649124 3 1 0
0.00476583 0.287586 0.00647042 3 1 0
0.00476439 0.287894 0.0064495 3 1 0
0.00476294 0.288203 0.00642858 3 1 0
0.00476148 0.288513 0.00640762 3 1 0
0.00476001 0.288827 0.00638665 3 1 0
0.00475852 0.28914 0.00636561 3 1 0
0.00475703 0.289455 0.00634454 3 1 0
0.00475553 0.289777 0.00632343 3 1 0
0.00475401 0.290095 0.00630233 3 1 0
0.00475249 0.290414 0.00628121 3 1 0
0.00475096 0.290736 0.00626008 3 1 0
0.00474942 0.291059 0.00623894 3 1 0
0.00474787 0.291382 0.00621779 3 1 0
0.00474631 0.291707 0.00619662 3 1 0
0.00474475 0.292033 0.00617547 3 1 0
0.00474318 0.29236 0.00615431 3 1 0
0.0047416 0.292689 0.00613312 3 1 0
0.00474001 0.293019 0.00611197 3 1 0
0.00473842 0.293349 0.00609083 3 1 0
0.00473681 0.293681 0.00606968 3 1 0
0.00473521 0.294014 0.00604855 3 1 0
0.00473359 0.294347 0.00602744 3 1 0
0.00473197 0.294682 0.00600634 3 1 0
0.00473034 0.295017 0.00598527 3 1 0
0.00472871 0.295353 0.00596421 3 1 0
0.00472707 0.295691 0.00594315 3 1 0
0.00472542 0.296029 0.00592213 3 1 0
0.00472377 0.296368 0.00590113 3 1 0
0.00472211 0.296708 0.00588012 3 1 0
0.00472045 0.297048 0.00585917 3 1 0
0.00471878 0.297389 0.00583824 3 1 0
0.0047171 0.29773 0.00581733 3 1 0
0.00471542 0.298072 0.00579646 3 1 0
0.00471374 0.298416 0.00577561 3 1 0
0.00471205 0.298762 0.00575479 3 1 0
0.00471036 0.299109 0.00573401 3 1 0
0.00470866 0.299456 0.00571327 3 1 0
0.00470695 0.299802 0.00569255 3 1 0
0.00470525 0.300151 0.00567187 3 1 0
0.00470353 0.3005 0.00565123 3 1 0
0.00470182 0.300848 0.00563063 3 1 0
0.00470009 0.301199 0.00561007 3 1 0
0.00469837 0.30155 0.00558954 3 1 0
0.00469664 0.301902 0.00556904 3 1 0
0.0046949 0.302255 0.00554859 3 1 0
0.00469317 0.302608 0.00552819 3 1 0
0.00469142 0.302961 0.00550779 3 1 0
0.00468968 0.303315 0.00548746 3 1 0
0.00468793 0.30367 0.00546717 3 1 0
0.00468617 0.304024 0.00544693 3 1 0
0.00468442 0.30438 0.00542673 3 1 0
0.00468265 0.304737 0.00540657 3 1 0
0.00468089 0.305093 0.00538647 3 1 0
0.00467912 0.305451 0.00536641 3 1 0
0.00467735 0.30581 0.00534639 3 1 0
0.00467557 0.306167 0.00532641 3 1 0
0.0046738 0.306527 0.00530648 3 1 0
0.00467201 0.306888 0.00528661 3 1 0
0.00467023 0.307248 0.00526674 3 1 0
0.00466844 0.307609 0.00524695 3 1 0
0.00466665 0.307971 0.00522722 3 1 0
0.00466485 0.308333 0.00520747 3 1 0
0.00466306 0.308696 0.00518783 3 1 0
0.00466126 0.309059 0.00516823 3 1 0
0.00465945 0.309422 0.00514864 3 1 0
0.00465765 0.309786 0.00512913 3 1 0
0.00465584 0.310151 0.00510968 3 1 0
0.00465402 0.310516 0.00509037 3 1 0
0.00465221 0.310882 0.005071 3 1 0
0.00465039 0.311247 0.00505168 3 1 0
0.00464857 0.311612 0.00503237 3 1 0
0.00464675 0.311979 0.00501317 3 1 0
0.00464492 0.312347 0.00499402 3 1 0
0.00464309 0.312713 0.00497503 3 1 0
0.00464126 0.313082 0.00495599 3 1 0
0.00463943 0.313452 0.00493701 3 1 0
0.00463759 0.313818 0.00491819 3 1 0
0.00463575 0.314189 0.00489931 3 1 0
0.00463391 0.31456 0.00488049 3 1 0
0.00463207 0.31493 0.0048617 3 1 0
0.00463022 0.3153 0.00484293 3 1 0
0.00462837 0.315671 0.00482422 3 1 0
0.00462652 0.316047 0.00480545 3 1 0
0.00462467 0.316418 0.00478685 3 1 0
0.00462281 0.31679 0.0047683 3 1 0
0.00462095 0.317166 0.00474976 3 1 0
0.0046191 0.31754 0.00473132 3 1 0
0.00461723 0.317914 0.00471294 3 1 0
0.00461537 0.318288 0.0046946 3 1 0
0.0046135 0.318662 0.00467633 3 1 0
0.00461164 0.319036 0.00465811 3 1 0
0.00460976 0.319414 0.00463994 3 1 0
0.00460789 0.31979 0.00462183 3 1 0
0.00460602 0.320167 0.00460377 3 1 0
0.00460414 0.320543 0.00458577 3 1 0
0.00460226 0.320921 0.00456783 3 1 0
0.00460038 0.321299 0.00454994 3 1 0
0.0045985 0.321676 0.0045321 3 1 0
0.00459662 0.322054 0.00451432 3 1 0
0.00459473 0.322432 0.00449659 3 1 0
0.00459284 0.32281 0.00447892 3 1 0
0.00459096 0.323188 0.0044613 3 1 0
0.00458906 0.323567 0.00444373 3 1 0
0.00458717 0.323949 0.00442622 3 1 0
0.00458528 0.324329 0.00440876 3 1 0
0.00458338 0.324708 0.00439136 3 1 0
0.00458148 0.32509 0.00437401 3 1 0
0.00457958 0.32547 0.00435671 3 1 0
0.00457768 0.325854 0.00433947 3 1 0
0.00457578 0.326238 0.00432231 3 1 0
0.00457387 0.326622 0.00430517 3 1 0
0.00457197 0.327006 0.00428809 3 1 0
0.00457006 0.327391 0.00427106 3 1 0
0.00456815 0.327776 0.00425408 3 1 0
0.00456624 0.32816 0.00423717 3 1 0
0.00456433 0.328544 0.00422032 3 1 0
0.00456241 0.32893 0.00420352 3 1 0
0.0045605 0.329315 0.00418677 3 1 0
0.00455858 0.3297 0.00417012 3 1 0
0.00455666 0.330086 0.00415348 3 1 0
0.00455474 0.330473 0.00413691 3 1 0
0.00455282 0.330856 0.00412042 3 1 0
0.0045509 0.331244 0.00410395 3 1 0
0.00454897 0.331632 0.00408754 3 1 0
0.00454705 0.332015 0.00407117 3 1 0
0.00454512 0.332404 0.00405486 3 1 0
0.00454319 0.332794 0.00403862 3 1 0
0.00454127 0.333183 0.00402241 3 1 0
0.00453933 0.333573 0.00400627 3 1 0
0.0045374 0.333963 0.00399018 3 1 0
0.00453547 0.334353 0.00397412 3 1 0
0.00453354 0.334743 0.00395815 3 1 0
0.0045316 0.335134 0.00394222 3 1 0
0.00452966 0.335524 0.00392633 3 1 0
0.00452773 0.335915 0.00391051 3 1 0
0.00452579 0.336305 0.00389474 3 1 0
0.00452385 0.336697 0.00387901 3 1 0
0.00452191 0.337089 0.00386332 3 1 0
0.00451996 0.33748 0.00384767 3 1 0
0.00451802 0.337871 0.00383213 3 1 0
0.00451608 0.338263 0.00381659 3 1 0
0.00451413 0.338655 0.00380111 3 1 0
0.00451218 0.33905 0.00378576 3 1 0
0.00451024 0.339442 0.00377038 3 1 0
0.00450829 0.339835 0.00375506 3 1 0
0.00450634 0.34023 0.00373984 3 1 0
0.00450439 0.340623 0.00372466 3 1 0
0.00450244 0.341016 0.00370949 3 1 0
0.00450049 0.341413 0.00369435 3 1 0
0.00449853 0.341807 0.00367933 3 1 0
0.00449658 0.342201 0.00366437 3 1 0
0.00449462 0.342599 0.00364932 3 1 0
0.00449267 0.342993 0.00363446 3 1 0
0.00449071 0.343388 0.00361965 3 1 0
0.00448875 0.343784 0.00360473 3 1 0
0.00448679 0.34418 0.00359002 3 1 0
0.00448483 0.344575 0.00357535 3 1 0
0.00448287 0.344981 0.00356088 3 1 0
0.00448091 0.345378 0.00354633 3 1 0
0.00447895 0.345775 0.00353184 3 1 0
0.00447699 0.346173 0.00351736 3 1 0
0.00447502 0.34657 0.00350293 3 1 0
0.00447306 0.346968 0.00348855 3 1 0
0.0044711 0.347369 0.0034742 3 1 0
0.00446913 0.347767 0.00345993 3 1 0
0.00446716 0.348165 0.00344571 3 1 0
0.0044652 0.348565 0.00343156 3 1 0
0.00446323 0.348964 0.00341745 3 1 0
0.00446126 0.349363 0.00340338 3 1 0
0.00445929 0.349762 0.00338939 3 1 0
0.00445732 0.35016 0.00337543 3 1 0
0.00445535 0.350559 0.00336152 3 1 0
0.00445338 0.35096 0.00334768 3 1 0
0.00445141 0.351363 0.00333387 3 1 0
0.00444944 0.351766 0.00332012 3 1 0
0.00444746 0.352166 0.00330643 3 1 0
0.00444549 0.352569 0.00329277 3 1 0
0.00444352 0.352973 0.00327917 3 1 0
0.00444154 0.353371 0.00326564 3 1 0
0.00443957 0.353774 0.00325213 3 1 0
0.00443759 0.354178 0.00323868 3 1 0
0.00443562 0.354581 0.00322531 3 1 0
0.00443364 0.354983 0.00321196 3 1 0
0.00443167 0.355385 0.00319866 3 1 0
0.00442969 0.355789 0.00318544 3 1 0
0.00442771 0.356194 0.00317224 3 1 0
0.00442573 0.3566 0.00315908 3 1 0
0.00442376 0.357004 0.00314601 3 1 0
0.00442178 0.357407 0.00313296 3 1 0
0.0044198 0.35781 0.00311995 3 1 0
0.00441782 0.358219 0.00310706 3 1 0
0.00441584 0.358622 0.00309415 3 1 0
0.00441386 0.359026 0.00308129 3 1 0
0.00441188 0.359432 0.00306855 3 1 0
0.0044099 0.359836 0.00305578 3 1 0
0.00440792 0.360242 0.00304307 3 1 0
0.00440594 0.360648 0.00303054 3 1 0
0.00440395 0.361056 0.00301792 3 1 0
0.00440197 0.361464 0.00300534 3 1 0
0.00439999 0.361869 0.0029929 3 1 0
0.00439801 0.362277 0.00298045 3 1 0
0.00439602 0.362685 0.00296802 3 1 0
0.00439404 0.363093 0.00295567 3 1 0
0.00439206 0.363501 0.00294335 3 1 0
0.00439008 0.363909 0.00293106 3 1 0
0.00438809 0.364315 0.00291873 3 1 0
0.00438611 0.364724 0.00290655 3 1 0
0.00438413 0.365132 0.00289441 3 1 0
0.00438214 0.36554 0.0028823 3 1 0
0.00438016 0.365949 0.00287026 3 1 0
0.00437818 0.366358 0.00285827 3 1 0
0.00437619 0.366764 0.00284632 3 1 0
0.00437421 0.367174 0.00283442 3 1 0
0.00437222 0.367583 0.00282257 3 1 0
0.00437024 0.36799 0.00281077 3 1 0
0.00436826 0.3684 0.00279902 3 1 0
0.00436627 0.36881 0.00278731 3 1 0
0.00436429 0.369214 0.00277565 3 1 0
0.0043623 0.369626 0.00276404 3 1 0
0.00436032 0.370037 0.00275247 3 1 0
0.00435833 0.370446 0.00274096 3 1 0
0.00435635 0.370857 0.00272948 3 1 0
0.00435437 0.371268 0.00271805 3 1 0
0.00435238 0.371678 0.00270667 3 1 0
0.0043504 0.372089 0.00269534 3 1 0
0.00434842 0.372501 0.00268404 3 1 0
0.00434643 0.372908 0.00267281 3 1 0
0.00434445 0.37332 0.00266161 3 1 0
0.00434247 0.373732 0.00265045 3 1 0
0.00434048 0.374138 0.00263935 3 1 0
0.0043385 0.374551 0.00262829 3 1 0
0.00433652 0.374963 0.00261726 3 1 0
0.00433453 0.375374 0.0026063 3 1 0
0.00433255 0.375787 0.00259537 3 1 0
0.00433057 0.3762 0.00258448 3 1 0
0.00432859 0.376605 0.00257366 3 1 0
0.00432661 0.377016 0.00256286 3 1 0
0.00432463 0.37743 0.0025521 3 1 0
0.00432265 0.377845 0.00254142 3 1 0
0.00432066 0.378255 0.00253076 3 1 0
0.00431868 0.378666 0.00252013 3 1 0
0.0043167 0.37908 0.0025096 3 1 0
0.00431473 0.379491 0.00249906 3 1 0
0.00431275 0.379902 0.00248856 3 1 0
0.00431077 0.380318 0.00247817 3 1 0
0.00430879 0.380729 0.00246777 3 1 0
0.00430681 0.38114 0.0024574 3 1 0
0.00430483 0.381558 0.00244718 3 1 0
0.00430286 0.38197 0.0024369 3 1 0
0.00430088 0.382382 0.00242666 3 1 0
0.0042989 0.38279 0.00241643 3 1 0
0.00429693 0.383201 0.0024063 3 1 0
0.00429495 0.383616 0.00239622 3 1 0
0.00429298 0.384027 0.00238623 3 1 0
0.004291 0.384442 0.00237623 3 1 0
0.00428903 0.384857 0.00236628 3 1 0
0.00428706 0.385266 0.00235641 3 1 0
0.00428508 0.385681 0.00234651 3 1 0
0.00428311 0.386095 0.00233665 3 1 0
0.00428114 0.38651 0.00232687 3 1 0
0.00427917 0.386925 0.00231713 3 1 0
0.0042772 0.387339 0.00230743 3 1 0
0.00427523 0.387749 0.00229766 3 1 0
0.00427326 0.388164 0.00228801 3 1 0
0.00427129 0.388578 0.0022784 3 1 0
0.00426933 0.38899 0.00226884 3 1 0
0.00426736 0.389404 0.00225932 3 1 0
0.00426539 0.389819 0.00224984 3 1 0
0.00426343 0.39023 0.00224042 3 1 0
0.00426147 0.390644 0.00223102 3 1 0
0.0042595 0.391059 0.00222167 3 1 0
0.00425754 0.391467 0.00221239 3 1 0
0.00425558 0.391882 0.00220311 3 1 0
0.00425362 0.392297 0.00219388 3 1 0
0.00425166 0.392709 0.00218476 3 1 0
0.0042497 0.393123 0.0021756 3 1 0
0.00424774 0.393537 0.00216649 3 1 0
0.00424578 0.39395 0.00215747 3 1 0
0.00424382 0.394364 0.00214844 3 1 0
0.00424187 0.394778 0.00213944 3 1 0
0.00423991 0.395186 0.00213047 3 1 0
0.00423796 0.3956 0.00212156 3 1 0
0.00423601 0.396015 0.00211269 3 1 0
0.00423406 0.396425 0.00210387 3 1 0
0.00423211 0.396839 0.00209508 3 1 0
0.00423016 0.397253 0.00208633 3 1 0
0.00422821 0.397665 0.00207765 3 1 0
0.00422626 0.398079 0.00206898 3 1 0
0.00422432 0.398492 0.00206034 3 1 0
0.00422237 0.3989 0.00205179 3 1 0
0.00422043 0.399314 0.00204323 3 1 0
0.00421848 0.399727 0.00203472 3 1 0
0.00421654 0.40014 0.00202635 3 1 0
0.0042146 0.400553 0.00201791 3 1 0
0.00421266 0.400965 0.00200951 3 1 0
0.00421073 0.401372 0.00200111 3 1 0
0.00420879 0.401785 0.00199279 3 1 0
0.00420685 0.402197 0.00198451 3 1 0
0.00420492 0.402607 0.00197626 3 1 0
0.00420299 0.40302 0.00196806 3 1 0
0.00420106 0.403431 0.0019599 3 1 0
0.00419913 0.40384 0.00195179 3 1 0
0.0041972 0.404252 0.00194371 3 1 0
0.00419527 0.404663 0.00193566 3 1 0
0.00419335 0.405073 0.00192767 3 1 0
0.00419142 0.405484 0.0019197 3 1 0
0.0041895 0.405894 0.00191176 3 1 0
0.00418758 0.406301 0.00190392 3 1 0
0.00418566 0.406712 0.00189606 3 1 0
0.00418374 0.407122 0.00188823 3 1 0
0.00418183 0.40753 0.00188049 3 1 0
0.00417991 0.40794 0.00187274 3 1 0
0.004178 0.408349 0.00186502 3 1 0
0.00417609 0.408758 0.00185737 3 1 0
0.00417418 0.409167 0.00184973 3 1 0
0.00417227 0.409575 0.00184213 3 1 0
0.00417037 0.409983 0.00183464 3 1 0
0.00416846 0.41039 0.00182711 3 1 0
0.00416656 0.410798 0.00181962 3 1 0
0.00416466 0.411204 0.00181208 3 1 0
0.00416276 0.411611 0.00180467 3 1 0
0.00416086 0.412018 0.00179729 3 1 0
0.00415897 0.41242 0.00178993 3 1 0
0.00415708 0.412827 0.00178263 3 1 0
0.00415518 0.413234 0.00177537 3 1 0
0.0041533 0.413639 0.00176814 3 1 0
0.00415141 0.414045 0.00176095 3 1 0
0.00414952 0.41445 0.00175379 3 1 0
0.00414764 0.414854 0.00174669 3 1 0
0.00414576 0.415259 0.00173961 3 1 0
0.00414388 0.415662 0.00173257 3 1 0
0.00414201 0.416055 0.00172559 3 1 0
0.00414013 0.41646 0.00171862 3 1 0
0.00413826 0.416864 0.00171169 3 1 0
0.00413639 0.417262 0.00170479 3 1 0
0.00413452 0.417666 0.00169793 3 1 0
0.00413266 0.418069 0.00169111 3 1 0
0.0041308 0.418467 0.00168432 3 1 0
0.00412894 0.418869 0.00167757 3 1 0
0.00412708 0.419271 0.00167085 3 1 0
0.00412522 0.419675 0.00166414 3 1 0
0.00412337 0.420073 0.0016575 3 1 0
0.00412152 0.42047 0.00165089 3 1 0
0.00411967 0.420867 0.00164439 3 1 0
0.00411783 0.421263 0.00163786 3 1 0
0.00411599 0.421658 0.00163136 3 1 0
0.00411415 0.422054 0.00162484 3 1 0
0.00411231 0.422452 0.00161839 3 1 0
0.00411048 0.42285 0.00161197 3 1 0
0.00410865 0.423246 0.00160559 3 1 0
0.00410682 0.423643 0.00159925 3 1 0
0.00410499 0.424038 0.00159294 3 1 0
0.00410317 0.424435 0.00158666 3 1 0
0.00410135 0.424828 0.00158043 3 1 0
0.00409954 0.42522 0.00157422 3 1 0
0.00409772 0.425612 0.00156818 3 1 0
0.00409591 0.426003 0.00156204 3 1 0
0.00409411 0.426393 0.00155594 3 1 0
0.0040923 0.426779 0.00154976 3 1 0
0.0040905 0.427169 0.00154374 3 1 0
0.00408871 0.427559 0.00153775 3 1 0
0.00408691 0.427947 0.0015318 3 1 0
0.00408512 0.428335 0.00152588 3 1 0
0.00408334 0.428722 0.00152 3 1 0
0.00408155 0.429103 0.00151415 3 1 0
0.00407977 0.429489 0.00150834 3 1 0
0.004078 0.429875 0.00150256 3 1 0
0.00407623 0.430252 0.00149683 3 1 0
0.00407446 0.430636 0.00149112 3 1 0
0.00407269 0.43102 0.00148545 3 1 0
0.00407093 0.431396 0.00147983 3 1 0
0.00406918 0.431778 0.00147422 3 1 0
0.00406742 0.43216 0.00146865 3 1 0
0.00406567 0.432533 0.00146311 3 1 0
0.00406393 0.432913 0.00145762 3 1 0
0.00406219 0.433291 0.00145216 3 1 0
0.00406045 0.433667 0.00144676 3 1 0
0.00405872 0.434043 0.00144137 3 1 0
0.00405699 0.434419 0.00143602 3 1 0
0.00405527 0.434785 0.00143074 3 1 0
0.00405355 0.435159 0.00142546 3 1 0
0.00405184 0.435532 0.00142022 3 1 0
0.00405013 0.435906 0.00141501 3 1 0
0.00404842 0.436273 0.00140984 3 1 0
0.00404672 0.43664 0.0014047 3 1 0
0.00404503 0.437011 0.00139964 3 1 0
0.00404334 0.437376 0.00139455 3 1 0
0.00404166 0.43774 0.0013895 3 1 0
0.00403998 0.438105 0.00138444 3 1 0
0.0040383 0.438466 0.00137947 3 1 0
0.00403663 0.438827 0.00137453 3 1 0
0.00403497 0.439186 0.0013696 3 1 0
0.00403331 0.439544 0.00136474 3 1 0
0.00403166 0.4399 0.0013599 3 1 0
0.00403001 0.440257 0.0013551 3 1 0
0.00402837 0.440611 0.00135034 3 1 0
0.00402673 0.440963 0.00134562 3 1 0
0.0040251 0.441317 0.00134093 3 1 0
0.00402348 0.441666 0.00133628 3 1 0
0.00402186 0.442014 0.00133167 3 1 0
0.00402025 0.442363 0.0013271 3 1 0
0.00401864 0.442709 0.00132256 3 1 0
0.00401705 0.443053 0.00131807 3 1 0
0.00401545 0.443393 0.00131361 3 1 0
0.00401387 0.443734 0.00130918 3 1 0
0.00401229 0.444072 0.0013048 3 1 0
0.00401072 0.444412 0.00130046 3 1 0
0.00400915 0.444747 0.00129615 3 1 0
0.0040076 0.44508 0.00129188 3 1 0
0.00400605 0.445413 0.00128764 3 1 0
0.0040045 0.445743 0.00128345 3 1 0
0.00400297 0.44607 0.00127929 3 1 0
0.00400144 0.446397 0.00127518 3 1 0
0.00399992 0.446721 0.0012711 3 1 0
0.00399841 0.447043 0.00126706 3 1 0
0.00399691 0.447364 0.00126307 3 1 0
0.00399541 0.447681 0.00125911 3 1 0
0.00399393 0.447996 0.00125519 3 1 0
0.00399245 0.448314 0.0012513 3 1 0
0.00399098 0.448628 0.00124746 3 1 0
0.00398952 0.44894 0.00124366 3 1 0
0.00398807 0.44925 0.00123991 3 1 0
0.00398662 0.449557 0.00123619 3 1 0
0.00398519 0.449861 0.00123251 3 1 0
0.00398377 0.450152 0.00122889 3 1 0
0.00398235 0.450452 0.0012253 3 1 0
0.00398095 0.45075 0.00122175 3 1 0
0.00397956 0.451042 0.00121819 3 1 0
0.00397817 0.451334 0.00121473 3 1 0
0.0039768 0.451624 0.0012113 3 1 0
0.00397544 0.451915 0.00120791 3 1 0
0.00397409 0.452199 0.00120458 3 1 0
0.00397275 0.45248 0.00120128 3 1 0
0.00397142 0.452751 0.00119799 3 1 0
0.0039701 0.453027 0.00119479 3 1 0
0.0039688 0.453299 0.00119163 3 1 0
0.00396751 0.453561 0.00118848 3 1 0
0.00396623 0.453828 0.00118541 3 1 0
0.00396496 0.454091 0.00118238 3 1 0
0.0039637 0.454347 0.00117936 3 1 0
0.00396246 0.454604 0.00117643 3 1 0
0.00396123 0.454857 0.00117355 3 1 0
0.00396002 0.455105 0.00117064 3 1 0
0.00395881 0.455352 0.00116785 3 1 0
0.00395763 0.455594 0.00116511 3 1 0
0.00395645 0.455827 0.00116243 3 1 0
0.00395529 0.456059 0.00115979 3 1 0
0.00395415 0.456291 0.0011572 3 1 0
0.00395302 0.45652 0.00115469 3 1 0
0.00395191 0.456742 0.0011522 3 1 0
0.00395081 0.456959 0.00114977 3 1 0
0.00394973 0.457178 0.0011474 3 1 0
0.00394866 0.457387 0.00114508 3 1 0
0.00394762 0.457591 0.00114279 3 1 0
0.00394658 0.457789 0.00114056 3 1 0
0.00394557 0.457987 0.00113837 3 1 0
0.00394457 0.458181 0.00113625 3 1 0
0.0039436 0.458371 0.00113422 3 1 0
0.00394264 0.458553 0.00113221 3 1 0
0.00394169 0.458731 0.00113025 3 1 0
0.00394077 0.458906 0.00112838 3 1 0
0.00393987 0.459074 0.00112655 3 1 0
0.00393899 0.459237 0.00112478 3 1 0
0.00393812 0.459396 0.00112307 3 1 0
0.00393728 0.459548 0.00112143 3 1 0
0.00393646 0.459695 0.00111985 3 1 0
0.00393566 0.459845 0.00111829 3 1 0
0.00393488 0.459982 0.00111684 3 1 0
0.00393412 0.460112 0.00111545 3 1 0
0.00393339 0.460234 0.00111407 3 1 0
0.00393267 0.460354 0.00111281 3 1 0
0.00393198 0.460467 0.00111162 3 1 0
0.00393132 0.460582 0.00111043 3 1 0
0.00393068 0.460683 0.00110937 3 1 0
0.00393006 0.460779 0.00110838 3 1 0
0.00392946 0.46087 0.00110743 3 1 0
0.00392889 0.460954 0.00110658 3 1 0
0.00392835 0.461031 0.00110579 3 1 0
0.00392783 0.4611 0.00110505 3 1 0
0.00392734 0.461164 0.00110441 3 1 0
0.00392687 0.461222 0.00110384 3 1 0
0.00392643 0.461274 0.0011033 3 1 0
0.00392601 0.461318 0.00110288 3 1 0
0.00392562 0.461356 0.00110253 3 1 0
0.00392526 0.461392 0.00110224 3 1 0
0.00392493 0.461416 0.00110204 3 1 0
0.00392462 0.461433 0.00110192 3 1 0
0.00392434 0.461441 0.00110186 3 1 0
0.00392409 0.461444 0.00110189 3 1 0
0.00392387 0.46144 0.00110199 3 1 0
0.00392368 0.461429 0.00110216 3 1 0
0.00392351 0.461411 0.00110242 3 1 0
0.00392338 0.461386 0.00110275 3 1 0
0.00392327 0.461354 0.00110317 3 1 0
0.00392319 0.461315 0.00110366 3 1 0
0.00392314 0.461269 0.00110423 3 1 0
0.00392312 0.461217 0.00110488 3 1 0
0.00392313 0.461156 0.00110561 3 1 0
0.00392317 0.461089 0.00110642 3 1 0
0.00392324 0.461011 0.00110731 3 1 0
0.00392334 0.460929 0.00110828 3 1 0
0.00392347 0.46084 0.00110932 3 1 0
0.00392362 0.460745 0.00111047 3 1 0
0.00392381 0.460642 0.00111167 3 1 0
0.00392402 0.460531 0.00111295 3 1 0
0.00392427 0.460415 0.00111429 3 1 0
0.00392454 0.460291 0.00111573 3 1 0
0.00392484 0.46016 0.00111724 3 1 0
0.00392517 0.460019 0.00111885 3 1 0
0.00392553 0.459875 0.00112052 3 1 0
0.00392591 0.459724 0.00112227 3 1 0
0.00392633 0.459566 0.0011241 3 1 0
0.00392677 0.459402 0.001126 3 1 0
0.00392724 0.459231 0.00112798 3 1 0
0.00392774 0.459061 0.00113002 3 1 0
0.00392826 0.458877 0.00113215 3 1 0
0.00392882 0.458687 0.00113435 3 1 0
0.00392939 0.458482 0.00113663 3 1 0
0.00393 0.45828 0.00113898 3 1 0
0.00393063 0.458072 0.0011414 3 1 0
0.00393128 0.457855 0.0011439 3 1 0
0.00393197 0.457636 0.00114647 3 1 0
0.00393267 0.45741 0.00114911 3 1 0
0.0039334 0.457182 0.00115181 3 1 0
0.00393416 0.456946 0.00115459 3 1 0
0.00393494 0.456704 0.00115744 3 1 0
0.00393574 0.456455 0.00116035 3 1 0
0.00393656 0.456202 0.00116333 3 1 0
0.00393741 0.455944 0.00116638 3 1 0
0.00393828 0.455679 0.0011695 3 1 0
0.00393918 0.455411 0.00117267 3 1 0
0.00394009 0.455139 0.00117592 3 1 0
0.00394103 0.454861 0.00117923 3 1 0
0.00394198 0.454579 0.0011826 3 1 0
0.00394296 0.454292 0.00118603 3 1 0
0.00394396 0.454001 0.00118956 3 1 0
0.00394498 0.453705 0.00119311 3 1 0
0.00394602 0.453405 0.00119673 3 1 0
0.00394707 0.4531 0.00120042 3 1 0
0.00394815 0.452793 0.00120416 3 1 0
0.00394924 0.452481 0.00120796 3 1 0
0.00395035 0.452165 0.00121181 3 1 0
0.00395148 0.451845 0.00121572 3 1 0
0.00395697 0.450305 0.0012347 3 1 0
0.00395819 0.449967 0.00123902 3 1 0
0.00395944 0.449624 0.0012433 3 1 0
0.00396069 0.449278 0.00124763 3 1 0
0.00396196 0.448925 0.00125208 3 1 0
0.00396325 0.448574 0.00125652 3 1 0
0.00396455 0.44822 0.00126101 3 1 0
0.00396586 0.447865 0.00126552 3 1 0
0.00396719 0.447505 0.00127012 3 1 0
0.00396853 0.447142 0.00127477 3 1 0
0.00396988 0.446776 0.00127943 3 1 0
0.00397125 0.446408 0.00128417 3 1 0
0.00397263 0.446037 0.00128897 3 1 0
0.00397402 0.445664 0.00129378 3 1 0
0.00397542 0.445289 0.00129867 3 1 0
0.00397684 0.44491 0.00130362 3 1 0
0.00397827 0.444532 0.00130858 3 1 0
0.00397971 0.44415 0.00131361 3 1 0
0.00398116 0.443765 0.00131869 3 1 0
0.00398262 0.44338 0.0013238 3 1 0
0.00398409 0.442991 0.00132897 3 1 0
0.00398557 0.4426 0.00133419 3 1 0
0.00398707 0.44221 0.00133943 3 1 0
0.00398857 0.441815 0.00134474 3 1 0
0.00399008 0.441419 0.0013501 3 1 0
0.00399161 0.441023 0.00135548 3 1 0
0.00399314 0.440624 0.00136093 3 1 0
0.00399468 0.440222 0.00136642 3 1 0
0.00399623 0.439824 0.00137194 3 1 0
0.00399779 0.43942 0.00137752 3 1 0
0.00399936 0.439015 0.00138314 3 1 0
0.00400094 0.43861 0.00138878 3 1 0
0.00400253 0.438202 0.00139449 3 1 0
0.00400412 0.437792 0.00140024 3 1 0
0.00400572 0.437382 0.00140602 3 1 0
0.00400734 0.43697 0.00141186 3 1 0
0.00400896 0.436556 0.00141773 3 1 0
0.00401058 0.436143 0.00142364 3 1 0
0.00401222 0.435727 0.0014296 3 1 0
0.00401386 0.435309 0.0014356 3 1 0
0.00401551 0.434892 0.00144164 3 1 0
0.00401716 0.434472 0.00144772 3 1 0
0.00401883 0.434051 0.00145385 3 1 0
0.0040205 0.433634 0.00146003 3 1 0
0.00402217 0.433212 0.00146624 3 1 0
0.00402386 0.432789 0.00147249 3 1 0
0.00402555 0.432366 0.00147878 3 1 0
0.00402725 0.431941 0.00148511 3 1 0
0.00402895 0.431516 0.00149148 3 1 0
0.00403066 0.431089 0.00149788 3 1 0
0.00403237 0.430662 0.00150431 3 1 0
0.0040341 0.430234 0.00151079 3 1 0
0.00403582 0.429804 0.0015173 3 1 0
0.00403756 0.429376 0.00152386 3 1 0
0.00403929 0.428946 0.00153046 3 1 0
0.00404104 0.428514 0.00153707 3 1 0
0.00404279 0.428083 0.00154375 3 1 0
0.00404454 0.427651 0.00155046 3 1 0
0.0040463 0.427215 0.00155718 3 1 0
0.00404807 0.426783 0.00156397 3 1 0
0.00404984 0.42635 0.00157081 3 1 0
0.00405162 0.425908 0.00157767 3 1 0
0.0040534 0.425475 0.00158459 3 1 0
0.00405518 0.425041 0.00159155 3 1 0
0.00405697 0.424598 0.00159853 3 1 0
0.00405877 0.424163 0.00160557 3 1 0
0.00406057 0.423728 0.00161264 3 1 0
0.00406237 0.423287 0.00161977 3 1 0
0.00406418 0.422846 0.00162693 3 1 0
0.004066 0.42241 0.00163413 3 1 0
0.00406781 0.421969 0.00164135 3 1 0
0.00406964 0.421531 0.00164863 3 1 0
0.00407146 0.421093 0.00165594 3 1 0
0.00407329 0.420655 0.0016633 3 1 0
0.00407513 0.420216 0.00167069 3 1 0
0.00407696 0.419777 0.00167812 3 1 0
0.00407881 0.419336 0.00168561 3 1 0
0.00408065 0.418895 0.00169311 3 1 0
0.0040825 0.418454 0.00170066 3 1 0
0.00408436 0.418009 0.00170825 3 1 0
0.00408621 0.417567 0.00171587 3 1 0
0.00408807 0.417126 0.00172354 3 1 0
0.00408994 0.416679 0.00173125 3 1 0
0.00409181 0.416237 0.00173899 3 1 0
0.00409368 0.415795 0.00174677 3 1 0
0.00409555 0.415347 0.0017546 3 1 0
0.00409743 0.414905 0.00176246 3 1 0
0.00409931 0.414462 0.00177036 3 1 0
0.0041012 0.414015 0.00177831 3 1 0
0.00410309 0.413572 0.00178629 3 1 0
0.00410498 0.413129 0.0017943 3 1 0
0.00410687 0.412683 0.00180236 3 1 0
0.00410877 0.41224 0.00181046 3 1 0
0.00411067 0.411796 0.00181859 3 1 0
0.00411258 0.411345 0.00182677 3 1 0
0.00411448 0.410901 0.00183498 3 1 0
0.00411639 0.410458 0.00184324 3 1 0
0.00411831 0.410007 0.00185154 3 1 0
0.00412022 0.409562 0.00185987 3 1 0
0.00412214 0.409118 0.00186825 3 1 0
0.00412406 0.408673 0.00187667 3 1 0
0.00412598 0.408225 0.00188512 3 1 0
0.00412791 0.407778 0.00189362 3 1 0
0.00412984 0.407341 0.00190215 3 1 0
0.00413177 0.406893 0.00191073 3 1 0
0.0041337 0.406446 0.00191935 3 1 0
0.00413564 0.406001 0.00192801 3 1 0
0.00413758 0.405554 0.00193671 3 1 0
0.00413952 0.405106 0.00194545 3 1 0
0.00414147 0.404664 0.00195424 3 1 0
0.00414341 0.404217 0.00196306 3 1 0
0.00414536 0.403769 0.00197192 3 1 0
0.00414731 0.403326 0.00198084 3 1 0
0.00414926 0.402879 0.00198979 3 1 0
0.00415122 0.402431 0.00199878 3 1 0
0.00415318 0.40199 0.00200784 3 1 0
0.00415514 0.401543 0.00201691 3 1 0
0.0041571 0.401096 0.00202602 3 1 0
0.00415906 0.400652 0.00203524 3 1 0
0.00416103 0.400205 0.00204444 3 1 0
0.004163 0.399758 0.00205368 3 1 0
0.00416497 0.399314 0.00206284 3 1 0
0.00416694 0.398867 0.00207214 3 1 0
0.00416892 0.39842 0.00208147 3 1 0
0.00417089 0.39798 0.00209075 3 1 0
0.00417287 0.397534 0.00210018 3 1 0
0.00417485 0.397088 0.00210965 3 1 0
0.00417683 0.39664 0.00211923 3 1 0
0.00417882 0.396193 0.00212878 3 1 0
0.0041808 0.395747 0.00213837 3 1 0
0.00418279 0.395307 0.00214803 3 1 0
0.00418478 0.394861 0.00215771 3 1 0
0.00418677 0.394414 0.00216742 3 1 0
0.00418877 0.393972 0.0021772 3 1 0
0.00419076 0.393526 0.002187 3 1 0
0.00419276 0.393081 0.00219684 3 1 0
0.00419475 0.392638 0.00220673 3 1 0
0.00419675 0.392193 0.00221666 3 1 0
0.00419876 0.391752 0.00222662 3 1 0
0.00420076 0.391311 0.00223665 3 1 0
0.00420276 0.390869 0.0022467 3 1 0
0.00420477 0.390427 0.0022568 3 1 0
0.00420678 0.389985 0.00226694 3 1 0
0.00420879 0.389543 0.00227712 3 1 0
0.0042108 0.389101 0.00228735 3 1 0
0.00421281 0.388656 0.00229761 3 1 0
0.00421482 0.388215 0.00230792 3 1 0
0.00421684 0.387774 0.00231828 3 1 0
0.00421886 0.387326 0.00232868 3 1 0
0.00422087 0.386886 0.00233912 3 1 0
0.00422289 0.386446 0.00234961 3 1 0
0.00422491 0.386 0.00236014 3 1 0
0.00422694 0.385561 0.00237072 3 1 0
0.00422896 0.385122 0.00238134 3 1 0
0.00423098 0.384681 0.00239201 3 1 0
0.00423301 0.384242 0.00240272 3 1 0
0.00423504 0.383803 0.00241348 3 1 0
0.00423707 0.383359 0.00242429 3 1 0
0.0042391 0.382921 0.00243514 3 1 0
0.00424113 0.382483 0.00244603 3 1 0
0.00424316 0.382041 0.00245699 3 1 0
0.00424519 0.381603 0.00246797 3 1 0
0.00424723 0.381166 0.002479 3 1 0
0.00424926 0.380726 0.00249012 3 1 0
0.0042513 0.380289 0.00250124 3 1 0
0.00425334 0.379851 0.00251241 3 1 0
0.00425538 0.379413 0.00252366 3 1 0
0.00425742 0.378976 0.00253489 3 1 0
0.00425946 0.378539 0.00254616 3 1 0
0.0042615 0.378097 0.00255731 3 1 0
0.00426354 0.377662 0.00256868 3 1 0
0.00426559 0.377226 0.0025801 3 1 0
0.00426763 0.376787 0.00259155 3 1 0
0.00426968 0.376352 0.00260306 3 1 0
0.00427173 0.375917 0.00261461 3 1 0
0.00427378 0.375475 0.00262622 3 1 0
0.00427583 0.375041 0.00263786 3 1 0
0.00427788 0.374608 0.00264956 3 1 0
0.00427993 0.374168 0.00266133 3 1 0
0.00428198 0.373736 0.00267311 3 1 0
0.00428403 0.373303 0.00268493 3 1 0
0.00428609 0.372866 0.00269682 3 1 0
0.00428814 0.372434 0.00270874 3 1 0
0.0042902 0.372002 0.00272071 3 1 0
0.00429225 0.371564 0.00273273 3 1 0
0.00429431 0.371133 0.00274479 3 1 0
0.00429637 0.370702 0.00275689 3 1 0
0.00429843 0.37027 0.00276904 3 1 0
0.00430049 0.369836 0.00278125 3 1 0
0.00430255 0.369402 0.0027935 3 1 0
0.00430461 0.368978 0.00280581 3 1 0
0.00430667 0.368546 0.00281816 3 1 0
0.00430874 0.368114 0.00283056 3 1 0
0.0043108 0.367684 0.00284297 3 1 0
0.00431286 0.367252 0.00285546 3 1 0
0.00431493 0.36682 0.002868 3 1 0
0.00431699 0.366395 0.00288058 3 1 0
0.00431906 0.365964 0.00289321 3 1 0
0.00432113 0.365534 0.00290589 3 1 0
0.0043232 0.365106 0.00291862 3 1 0
0.00432526 0.364676 0.00293139 3 1 0
0.00432733 0.364246 0.00294422 3 1 0
0.0043294 0.36382 0.0029571 3 1 0
0.00433147 0.363391 0.00297002 3 1 0
0.00433354 0.362962 0.002983 3 1 0
0.00433562 0.362537 0.00299604 3 1 0
0.00433769 0.362109 0.00300911 3 1 0
0.00433976 0.361681 0.00302223 3 1 0
0.00434183 0.361259 0.00303546 3 1 0
0.00434391 0.360832 0.00304869 3 1 0
0.00434598 0.360405 0.00306196 3 1 0
0.00434806 0.359984 0.0030753 3 1 0
0.00435013 0.359558 0.00308864 3 1 0
0.00435221 0.359132 0.00310202 3 1 0
0.00435428 0.35871 0.0031155 3 1 0
0.00435636 0.358286 0.00312899 3 1 0
0.00435844 0.357861 0.00314252 3 1 0
0.00436052 0.357441 0.00315607 3 1 0
0.0043626 0.357017 0.00316971 3 1 0
0.00436467 0.356594 0.0031834 3 1 0
0.00436675 0.356173 0.00319719 3 1 0
0.00436883 0.35575 0.00321097 3 1 0
0.00437091 0.355328 0.00322481 3 1 0
0.00437299 0.354906 0.00323884 3 1 0
0.00437507 0.354484 0.00325277 3 1 0
0.00437715 0.354062 0.00326676 3 1 0
0.00437924 0.353644 0.00328089 3 1 0
0.00438132 0.353223 0.00329498 3 1 0
0.0043834 0.352802 0.00330911 3 1 0
0.00438548 0.352383 0.00332336 3 1 0
0.00438757 0.351966 0.0033376 3 1 0
0.00438965 0.351549 0.00335188 3 1 0
0.00439173 0.351127 0.00336619 3 1 0
0.00439382 0.350709 0.00338058 3 1 0
0.0043959 0.350294 0.00339502 3 1 0
0.00439799 0.349875 0.00340944 3 1 0
0.00440007 0.34946 0.00342399 3 1 0
0.00440215 0.349046 0.00343859 3 1 0
0.00440424 0.348629 0.00345333 3 1 0
0.00440633 0.348215 0.00346802 3 1 0
0.00440841 0.347801 0.00348278 3 1 0
0.0044105 0.347386 0.00349764 3 1 0
0.00441258 0.346973 0.0035125 3 1 0
0.00441467 0.346559 0.0035274 3 1 0
0.00441676 0.346146 0.00354239 3 1 0
0.00441884 0.345733 0.0035574 3 1 0
0.00442093 0.34532 0.00357246 3 1 0
0.00442302 0.344907 0.0035876 3 1 0
0.0044251 0.344495 0.00360276 3 1 0
0.00442719 0.344082 0.00361798 3 1 0
0.00442928 0.343671 0.00363324 3 1 0
0.00443137 0.343259 0.00364857 3 1 0
0.00443345 0.342847 0.00366394 3 1 0
0.00443554 0.34244 0.00367935 3 1 0
0.00443763 0.34203 0.00369483 3 1 0
0.00443972 0.34162 0.00371037 3 1 0
0.0044418 0.34121 0.00372594 3 1 0
0.00444389 0.340802 0.00374159 3 1 0
0.00444598 0.340394 0.00375729 3 1 0
0.00444807 0.339984 0.00377314 3 1 0
0.00445016 0.339578 0.00378896 3 1 0
0.00445225 0.339171 0.00380484 3 1 0
0.00445433 0.338761 0.00382097 3 1 0
0.00445642 0.338356 0.00383691 3 1 0
0.00445851 0.337951 0.0038529 3 1 0
0.0044606 0.337544 0.00386886 3 1 0
0.00446269 0.33714 0.003885 3 1 0
0.00446478 0.336736 0.0039012 3 1 0
0.00446686 0.336331 0.00391728 3 1 0
0.00446895 0.335927 0.00393357 3 1 0
0.00447104 0.335524 0.00394992 3 1 0
0.00447313 0.335121 0.00396624 3 1 0
0.00447522 0.334718 0.00398269 3 1 0
0.0044773 0.334316 0.0039992 3 1 0
0.00447939 0.333914 0.00401571 3 1 0
0.00448148 0.333512 0.00403232 3 1 0
0.00448357 0.333111 0.00404898 3 1 0
0.00448565 0.33271 0.00406568 3 1 0
0.00448774 0.33231 0.00408245 3 1 0
0.00448983 0.33191 0.00409927 3 1 0
0.00449192 0.33151 0.00411614 3 1 0
0.004494 0.331111 0.00413307 3 1 0
0.00449609 0.330713 0.00415006 3 1 0
0.00449818 0.330314 0.00416713 3 1 0
0.00450026 0.329916 0.00418423 3 1 0
0.00450235 0.329519 0.00420138 3 1 0
0.00450443 0.329121 0.00421859 3 1 0
0.00450652 0.328725 0.00423585 3 1 0
0.0045086 0.328329 0.00425317 3 1 0
0.00451069 0.327933 0.00427045 3 1 0
0.00451277 0.327538 0.00428787 3 1 0
0.00451486 0.327144 0.00430535 3 1 0
0.00451694 0.326749 0.00432285 3 1 0
0.00451903 0.326355 0.00434044 3 1 0
0.00452111 0.325962 0.00435808 3 1 0
0.00452319 0.325568 0.00437585 3 1 0
