0.00689261 0.0789521 0.0675711 4 1 0
0.00699813 0.0784539 0.068022 4 1 0
0.00712392 0.0779565 0.0684762 4 1 0
0.00727651 0.0774598 0.0689337 4 1 0
0.00746557 0.0769636 0.0693948 4 1 0
0.00770598 0.0764678 0.0698596 4 1 0
0.00802182 0.0759727 0.070328 4 1 0
0.00845428 0.075479 0.070799 4 1 0
0.00907851 0.0749896 0.0712702 4 1 0
0.0100403 0.0745122 0.0717338 4 1 0
0.0116312 0.0740661 0.0721706 4 1 0
0.0144153 0.0736876 0.072544 4 1 0
0.019503 0.0734105 0.072819 4 1 0
0.0297793 0.0732373 0.0729915 4 1 0
0.0523771 0.0731536 0.0730751 4 1 0
0.0835873 0.0731298 0.073099 4 1 0
0.113678 0.0731227 0.073106 4 1 0
0.143597 0.0731196 0.0731091 4 1 0
0.173547 0.0731179 0.0731108 4 1 0
0.203519 0.073117 0.0731118 4 1 0
0.233502 0.0731163 0.0731124 4 1 0
0.263491 0.0731159 0.0731128 4 1 0
0.293485 0.0731156 0.0731131 4 1 0
0.32348 0.0731154 0.0731133 4 1 0
0.353477 0.0731152 0.0731135 4 1 0
0.383475 0.0731151 0.0731136 4 1 0
0.413473 0.073115 0.0731137 4 1 0
0.443472 0.0731149 0.0731138 4 1 0
0.473471 0.0731148 0.0731139 4 1 0
0.50347 0.0731148 0.0731139 4 1 0
0.53347 0.0731147 0.073114 4 1 0
0.563469 0.0731147 0.073114 4 1 0
0.593469 0.0731147 0.0731141 4 1 0
0.623468 0.0731146 0.0731141 4 1 0
0.653468 0.0731146 0.0731141 4 1 0
0.683468 0.0731146 0.0731141 4 1 0
0.713468 0.0731146 0.0731141 4 1 0
0.743468 0.0731146 0.0731142 4 1 0
0.773467 0.0731145 0.0731142 4 1 0
0.803467 0.0731145 0.0731142 4 1 0
0.833467 0.0731145 0.0731142 4 1 0
0.863467 0.0731145 0.0731142 4 1 0
0.893467 0.0731145 0.0731142 4 1 0
0.923467 0.0731145 0.0731142 4 1 0
0.953467 0.0731145 0.0731142 4 1 0
0.983467 0.0731145 0.0731142 4 1 0
1.01347 0.0731145 0.0731143 4 1 0
0.00525631 0.19785 0.0168219 4 1 0
0.00525596 0.197911 0.0168106 4 1 0
0.00525544 0.198004 0.0167938 4 1 0
0.00525492 0.198096 0.0167766 4 1 0
0.0052544 0.198188 0.0167598 4 1 0
0.00525389 0.19828 0.016743 4 1 0
0.00525337 0.198373 0.0167262 4 1 0
0.00525285 0.198465 0.0167094 4 1 0
0.00525233 0.198557 0.0166927 4 1 0
0.00525181 0.19865 0.016676 4 1 0
0.00525129 0.198742 0.0166592 4 1 0
0.00525077 0.198835 0.0166425 4 1 0
0.00525025 0.198927 0.0166258 4 1 0
0.00524973 0.19902 0.0166091 4 1 0
0.00524921 0.199112 0.0165924 4 1 0
0.00524869 0.199204 0.0165758 4 1 0
0.00524817 0.199297 0.0165591 4 1 0
0.00524765 0.19939 0.0165425 4 1 0
0.00524713 0.199482 0.0165259 4 1 0
0.00524661 0.199575 0.0165093 4 1 0
0.00524609 0.199667 0.0164926 4 1 0
0.00524557 0.19976 0.0164761 4 1 0
0.00524505 0.199853 0.0164595 4 1 0
0.00524453 0.199945 0.0164429 4 1 0
0.00524401 0.200038 0.0164264 4 1 0
0.00524349 0.200131 0.0164099 4 1 0
0.00524297 0.200223 0.0163933 4 1 0
0.00524244 0.200316 0.0163767 4 1 0
0.00524192 0.200409 0.0163602 4 1 0
0.0052414 0.200503 0.0163438 4 1 0
0.00524088 0.200596 0.0163272 4 1 0
0.00524036 0.20069 0.0163107 4 1 0
0.00523984 0.200783 0.0162943 4 1 0
0.00523932 0.200876 0.0162777 4 1 0
0.0052388 0.20097 0.0162613 4 1 0
0.00523827 0.201063 0.0162449 4 1 0
0.00523775 0.201156 0.0162283 4 1 0
0.00523723 0.20125 0.0162119 4 1 0
0.00523671 0.201343 0.0161956 4 1 0
0.00523619 0.201436 0.016179 4 1 0
0.00523567 0.20153 0.0161626 4 1 0
0.00523514 0.201623 0.0161463 4 1 0
0.00523462 0.201715 0.0161298 4 1 0
0.0052341 0.201809 0.0161135 4 1 0
0.00523358 0.201903 0.0160971 4 1 0
0.00523305 0.201996 0.0160807 4 1 0
0.00523253 0.202089 0.0160644 4 1 0
0.00523201 0.202183 0.0160482 4 1 0
0.00523149 0.202276 0.0160318 4 1 0
0.00523096 0.20237 0.0160156 4 1 0
0.00523044 0.202464 0.0159993 4 1 0
0.00522992 0.202557 0.015983 4 1 0
0.0052294 0.202651 0.0159668 4 1 0
0.00522887 0.202745 0.0159506 4 1 0
0.00522835 0.202838 0.0159344 4 1 0
0.00522783 0.202932 0.0159182 4 1 0
0.0052273 0.203026 0.015902 4 1 0
0.00522678 0.20312 0.0158858 4 1 0
0.00522626 0.203214 0.0158697 4 1 0
0.00522573 0.203307 0.0158535 4 1 0
0.00522521 0.203402 0.0158374 4 1 0
0.00522469 0.203495 0.0158213 4 1 0
0.00522416 0.203589 0.0158052 4 1 0
0.00522364 0.203684 0.0157891 4 1 0
0.00522311 0.203777 0.015773 4 1 0
0.00522259 0.203872 0.015757 4 1 0
0.00522207 0.203967 0.0157409 4 1 0
0.00522154 0.204061 0.0157249 4 1 0
0.00522102 0.204155 0.0157089 4 1 0
0.00522049 0.20425 0.0156929 4 1 0
0.00521997 0.204344 0.0156769 4 1 0
0.00521944 0.204438 0.0156609 4 1 0
0.00521892 0.204532 0.0156451 4 1 0
0.00521839 0.204626 0.0156291 4 1 0
0.00521787 0.20472 0.0156131 4 1 0
0.00521735 0.204816 0.0155973 4 1 0
0.00521682 0.204911 0.0155814 4 1 0
0.0052163 0.205006 0.0155654 4 1 0
0.00521577 0.2051 0.0155496 4 1 0
0.00521525 0.205195 0.0155337 4 1 0
0.00521472 0.205289 0.0155178 4 1 0
0.00521419 0.205384 0.0155017 4 1 0
0.00521367 0.205479 0.0154858 4 1 0
0.00521314 0.205573 0.01547 4 1 0
0.00521262 0.205668 0.0154541 4 1 0
0.00521209 0.205763 0.0154383 4 1 0
0.00521157 0.205858 0.0154225 4 1 0
0.00521104 0.205953 0.0154066 4 1 0
0.00521052 0.206047 0.0153908 4 1 0
0.00520999 0.206142 0.015375 4 1 0
0.00520946 0.206237 0.0153592 4 1 0
0.00520894 0.206332 0.0153435 4 1 0
0.00520841 0.206427 0.0153277 4 1 0
0.00520788 0.206521 0.015312 4 1 0
0.00520736 0.206616 0.0152963 4 1 0
0.00520683 0.206711 0.0152806 4 1 0
0.00520631 0.206806 0.0152649 4 1 0
0.00520578 0.206901 0.0152492 4 1 0
0.00520525 0.206997 0.0152335 4 1 0
0.00520473 0.207091 0.0152179 4 1 0
0.0052042 0.207187 0.0152022 4 1 0
0.00520367 0.207282 0.0151866 4 1 0
0.00520314 0.207377 0.015171 4 1 0
0.00520262 0.207472 0.0151554 4 1 0
0.00520209 0.207567 0.0151398 4 1 0
0.00520156 0.207663 0.0151243 4 1 0
0.00520104 0.207758 0.0151087 4 1 0
0.00520051 0.207853 0.0150931 4 1 0
0.00519998 0.207949 0.0150777 4 1 0
0.00519945 0.208044 0.0150621 4 1 0
0.00519893 0.208139 0.0150466 4 1 0
0.0051984 0.208235 0.0150312 4 1 0
0.00519787 0.20833 0.0150157 4 1 0
0.00519734 0.208426 0.0150002 4 1 0
0.00519681 0.208521 0.0149849 4 1 0
0.00519629 0.208616 0.0149694 4 1 0
0.00519576 0.208712 0.0149539 4 1 0
0.00519523 0.208808 0.0149384 4 1 0
0.0051947 0.208903 0.014923 4 1 0
0.00519417 0.208999 0.0149076 4 1 0
0.00519364 0.209095 0.0148922 4 1 0
0.00519311 0.20919 0.0148768 4 1 0
0.00519259 0.209286 0.0148614 4 1 0
0.00519206 0.209382 0.0148461 4 1 0
0.00519153 0.209478 0.0148308 4 1 0
0.005191 0.209573 0.0148154 4 1 0
0.00519047 0.209669 0.0148002 4 1 0
0.00518994 0.209765 0.0147849 4 1 0
0.00518941 0.209861 0.0147696 4 1 0
0.00518888 0.209957 0.0147544 4 1 0
0.00518835 0.210053 0.0147391 4 1 0
0.00518782 0.210149 0.0147238 4 1 0
0.00518729 0.210245 0.0147086 4 1 0
0.00518676 0.210341 0.0146934 4 1 0
0.00518623 0.210437 0.0146781 4 1 0
0.0051857 0.210533 0.014663 4 1 0
0.00518518 0.210629 0.0146478 4 1 0
0.00518465 0.210725 0.0146326 4 1 0
0.00518411 0.210822 0.0146175 4 1 0
0.00518358 0.210918 0.0146023 4 1 0
0.00518305 0.211014 0.0145872 4 1 0
0.00518252 0.21111 0.0145721 4 1 0
0.00518199 0.211207 0.0145569 4 1 0
0.00518146 0.211303 0.0145418 4 1 0
0.00518093 0.211399 0.0145267 4 1 0
0.0051804 0.211496 0.0145116 4 1 0
0.00517987 0.211592 0.0144965 4 1 0
0.00517934 0.211688 0.0144815 4 1 0
0.00517881 0.211785 0.0144664 4 1 0
0.00517828 0.211881 0.0144514 4 1 0
0.00517775 0.211978 0.0144364 4 1 0
0.00517722 0.212074 0.0144213 4 1 0
0.00517668 0.212171 0.0144063 4 1 0
0.00517615 0.212267 0.0143913 4 1 0
0.00517562 0.212364 0.0143763 4 1 0
0.00517509 0.212461 0.0143614 4 1 0
0.00517456 0.212557 0.0143465 4 1 0
0.00517403 0.212654 0.0143315 4 1 0
0.00517349 0.212751 0.0143166 4 1 0
0.00517296 0.212847 0.0143016 4 1 0
0.00517243 0.212944 0.0142867 4 1 0
0.0051719 0.213041 0.0142718 4 1 0
0.00517137 0.213138 0.0142569 4 1 0
0.00517083 0.213234 0.014242 4 1 0
0.0051703 0.213331 0.0142272 4 1 0
0.00516977 0.213428 0.0142122 4 1 0
0.00516924 0.213525 0.0141974 4 1 0
0.0051687 0.213622 0.0141826 4 1 0
0.00516817 0.213719 0.0141677 4 1 0
0.00516764 0.213816 0.0141529 4 1 0
0.00516711 0.213913 0.0141381 4 1 0
0.00516657 0.21401 0.0141233 4 1 0
0.00516604 0.214108 0.0141085 4 1 0
0.00516551 0.214205 0.0140938 4 1 0
0.00516497 0.214302 0.014079 4 1 0
0.00516444 0.214399 0.0140643 4 1 0
0.00516391 0.214496 0.0140496 4 1 0
0.00516337 0.214593 0.0140348 4 1 0
0.00516284 0.21469 0.0140201 4 1 0
0.00516231 0.214788 0.0140055 4 1 0
0.00516177 0.214884 0.0139908 4 1 0
0.00516124 0.214982 0.0139761 4 1 0
0.0051607 0.215079 0.0139615 4 1 0
0.00516017 0.215177 0.0139468 4 1 0
0.00515964 0.215275 0.0139322 4 1 0
0.0051591 0.215372 0.0139176 4 1 0
0.00515857 0.21547 0.0139029 4 1 0
0.00515803 0.215567 0.0138883 4 1 0
0.0051575 0.215665 0.0138738 4 1 0
0.00515696 0.215762 0.0138592 4 1 0
0.00515643 0.215859 0.0138446 4 1 0
0.00515589 0.215957 0.0138301 4 1 0
0.00515536 0.216054 0.0138156 4 1 0
0.00515482 0.216152 0.013801 4 1 0
0.00515429 0.21625 0.0137865 4 1 0
0.00515375 0.216347 0.0137721 4 1 0
0.00515322 0.216445 0.0137576 4 1 0
0.00515268 0.216543 0.0137431 4 1 0
0.00515215 0.21664 0.0137287 4 1 0
0.00515161 0.216738 0.0137143 4 1 0
0.00515108 0.216836 0.0136999 4 1 0
0.00515054 0.216933 0.0136855 4 1 0
0.00515001 0.217031 0.0136711 4 1 0
0.00514947 0.217128 0.0136567 4 1 0
0.00514893 0.217225 0.0136424 4 1 0
0.0051484 0.217323 0.0136281 4 1 0
0.00514786 0.217421 0.0136137 4 1 0
0.00514732 0.217519 0.0135993 4 1 0
0.00514679 0.217618 0.013585 4 1 0
0.00514625 0.217716 0.0135706 4 1 0
0.00514572 0.217813 0.0135564 4 1 0
0.00514518 0.217912 0.0135421 4 1 0
0.00514464 0.21801 0.0135278 4 1 0
0.0051441 0.218107 0.0135136 4 1 0
0.00514357 0.218206 0.0134993 4 1 0
0.00514303 0.218304 0.0134851 4 1 0
0.00514249 0.218402 0.0134709 4 1 0
0.00514196 0.218501 0.0134567 4 1 0
0.00514142 0.218599 0.0134424 4 1 0
0.00514088 0.218697 0.0134283 4 1 0
0.00514034 0.218796 0.0134141 4 1 0
0.00513981 0.218895 0.0134 4 1 0
0.00513927 0.218993 0.0133858 4 1 0
0.00513873 0.219091 0.0133717 4 1 0
0.00513819 0.21919 0.0133575 4 1 0
0.00513766 0.219288 0.0133434 4 1 0
0.00513712 0.219387 0.0133293 4 1 0
0.00513658 0.219486 0.0133152 4 1 0
0.00513604 0.219584 0.0133011 4 1 0
0.0051355 0.219683 0.013287 4 1 0
0.00513496 0.219781 0.0132729 4 1 0
0.00513443 0.21988 0.013259 4 1 0
0.00513389 0.219979 0.0132449 4 1 0
0.00513335 0.220078 0.0132308 4 1 0
0.00513281 0.220176 0.0132169 4 1 0
0.00513227 0.220275 0.0132029 4 1 0
0.00513173 0.220374 0.0131888 4 1 0
0.00513119 0.220472 0.0131749 4 1 0
0.00513065 0.220571 0.0131609 4 1 0
0.00513011 0.220671 0.013147 4 1 0
0.00512957 0.220769 0.0131331 4 1 0
0.00512903 0.220868 0.0131191 4 1 0
0.00512849 0.220967 0.0131052 4 1 0
0.00512795 0.221066 0.0130912 4 1 0
0.00512741 0.221165 0.0130773 4 1 0
0.00512687 0.221264 0.0130635 4 1 0
0.00512633 0.221363 0.0130495 4 1 0
0.00512579 0.221462 0.0130356 4 1 0
0.00512525 0.221561 0.0130218 4 1 0
0.00512471 0.22166 0.0130079 4 1 0
0.00512417 0.221759 0.012994 4 1 0
0.00512363 0.221859 0.0129802 4 1 0
0.00512309 0.221957 0.0129663 4 1 0
0.00512255 0.222057 0.0129526 4 1 0
0.00512201 0.222156 0.0129388 4 1 0
0.00512147 0.222255 0.0129249 4 1 0
0.00512093 0.222354 0.0129112 4 1 0
0.00512039 0.222454 0.0128975 4 1 0
0.00511985 0.222553 0.0128837 4 1 0
0.00511931 0.222652 0.0128699 4 1 0
0.00511876 0.222751 0.0128562 4 1 0
0.00511822 0.222851 0.0128425 4 1 0
0.00511768 0.22295 0.0128288 4 1 0
0.00511714 0.22305 0.0128151 4 1 0
0.0051166 0.223149 0.0128014 4 1 0
0.00511605 0.223249 0.0127877 4 1 0
0.00511551 0.223349 0.0127741 4 1 0
0.00511497 0.223448 0.0127604 4 1 0
0.00511443 0.223547 0.0127468 4 1 0
0.00511389 0.223647 0.0127332 4 1 0
0.00511334 0.223747 0.0127195 4 1 0
0.0051128 0.223847 0.012706 4 1 0
0.00511226 0.223947 0.0126924 4 1 0
0.00511172 0.224047 0.0126788 4 1 0
0.00511117 0.224147 0.0126652 4 1 0
0.00511063 0.224247 0.0126517 4 1 0
0.00511009 0.224347 0.0126382 4 1 0
0.00510954 0.224447 0.0126247 4 1 0
0.005109 0.224547 0.0126112 4 1 0
0.00510846 0.224647 0.0125977 4 1 0
0.00510791 0.224747 0.0125842 4 1 0
0.00510737 0.224847 0.0125707 4 1 0
0.00510683 0.224948 0.0125573 4 1 0
0.00510628 0.225048 0.0125438 4 1 0
0.00510574 0.225148 0.0125304 4 1 0
0.00510519 0.225248 0.0125169 4 1 0
0.00510465 0.225348 0.0125035 4 1 0
0.00510411 0.225449 0.0124901 4 1 0
0.00510356 0.225548 0.0124767 4 1 0
0.00510302 0.225648 0.0124633 4 1 0
0.00510247 0.225748 0.01245 4 1 0
0.00510193 0.225846 0.0124366 4 1 0
0.00510138 0.225947 0.0124233 4 1 0
0.00510084 0.226047 0.0124099 4 1 0
0.00510029 0.226147 0.0123966 4 1 0
0.00509975 0.226247 0.0123833 4 1 0
0.0050992 0.226348 0.01237 4 1 0
0.00509866 0.226448 0.0123568 4 1 0
0.00509811 0.226549 0.0123435 4 1 0
0.00509757 0.226649 0.0123302 4 1 0
0.00509702 0.226751 0.012317 4 1 0
0.00509648 0.226852 0.0123038 4 1 0
0.00509593 0.226953 0.0122905 4 1 0
0.00509538 0.227054 0.0122773 4 1 0
0.00509484 0.227155 0.0122641 4 1 0
0.00509429 0.227255 0.0122509 4 1 0
0.00509375 0.227356 0.0122378 4 1 0
0.0050932 0.227456 0.0122246 4 1 0
0.00509265 0.227557 0.0122114 4 1 0
0.00509211 0.227657 0.0121983 4 1 0
0.00509156 0.227758 0.0121852 4 1 0
0.00509101 0.227858 0.012172 4 1 0
0.00509047 0.227958 0.012159 4 1 0
0.00508992 0.228059 0.0121458 4 1 0
0.00508937 0.22816 0.0121327 4 1 0
0.00508883 0.22826 0.0121197 4 1 0
0.00508828 0.228361 0.0121066 4 1 0
0.00508773 0.228462 0.0120936 4 1 0
0.00508718 0.228563 0.0120806 4 1 0
0.00508664 0.228664 0.0120675 4 1 0
0.00508609 0.228764 0.0120545 4 1 0
0.00508554 0.228866 0.0120416 4 1 0
0.00508499 0.228967 0.0120286 4 1 0
0.00508444 0.229068 0.0120156 4 1 0
0.0050839 0.229169 0.0120027 4 1 0
0.00508335 0.22927 0.0119897 4 1 0
0.0050828 0.229371 0.0119767 4 1 0
0.00508225 0.229471 0.0119639 4 1 0
0.0050817 0.229572 0.0119509 4 1 0
0.00508115 0.229673 0.011938 4 1 0
0.00508061 0.229774 0.0119249 4 1 0
0.00508006 0.229875 0.011912 4 1 0
0.00507951 0.229976 0.0118992 4 1 0
0.00507896 0.230079 0.0118861 4 1 0
0.00507841 0.23018 0.0118733 4 1 0
0.00507786 0.230281 0.0118604 4 1 0
0.00507932 0.230013 0.0118944 4 1 0
0.00507877 0.230115 0.0118816 4 1 0
0.00507822 0.230216 0.0118687 4 1 0
0.00507767 0.230316 0.0118559 4 1 0
0.00507712 0.230418 0.011843 4 1 0
0.00507657 0.230519 0.0118302 4 1 0
0.00507602 0.23062 0.0118174 4 1 0
0.00507547 0.230721 0.0118046 4 1 0
0.00507492 0.230822 0.0117918 4 1 0
0.00507438 0.230923 0.0117791 4 1 0
0.00507383 0.231024 0.0117664 4 1 0
0.00507329 0.231124 0.0117538 4 1 0
0.00507274 0.231226 0.011741 4 1 0
0.0050722 0.231324 0.0117286 4 1 0
0.00507165 0.231426 0.0117159 4 1 0
0.00507112 0.231524 0.0117037 4 1 0
0.00507057 0.231626 0.011691 4 1 0
0.00507002 0.231727 0.0116784 4 1 0
0.00506947 0.231828 0.0116657 4 1 0
0.00506893 0.231929 0.0116532 4 1 0
0.00506838 0.232031 0.0116405 4 1 0
0.00506783 0.232131 0.0116281 4 1 0
0.00506728 0.232233 0.0116154 4 1 0
0.00506674 0.232333 0.011603 4 1 0
0.00506619 0.232435 0.0115905 4 1 0
0.00506565 0.232534 0.0115781 4 1 0
0.0050651 0.232636 0.0115655 4 1 0
0.00506456 0.232736 0.0115533 4 1 0
0.00506401 0.232838 0.0115407 4 1 0
0.00506347 0.232936 0.0115285 4 1 0
0.00506292 0.233039 0.0115161 4 1 0
0.00506239 0.233137 0.0115041 4 1 0
0.00506184 0.233238 0.0114915 4 1 0
0.00506131 0.233336 0.0114797 4 1 0
0.00506076 0.233438 0.0114672 4 1 0
0.00506022 0.233538 0.0114549 4 1 0
0.00505966 0.23364 0.0114425 4 1 0
0.00505912 0.23374 0.0114303 4 1 0
0.00505857 0.233843 0.0114178 4 1 0
0.00505803 0.233943 0.0114057 4 1 0
0.00505748 0.234045 0.0113932 4 1 0
0.0050566 0.234206 0.0113736 4 1 0
0.00505605 0.234309 0.0113613 4 1 0
0.00505605 0.23431 0.0113612 4 1 0
0.00505549 0.234412 0.0113488 4 1 0
0.00505496 0.234511 0.0113368 4 1 0
0.0050544 0.234613 0.0113244 4 1 0
0.00505451 0.234592 0.0113269 4 1 0
0.00505396 0.234695 0.0113145 4 1 0
0.00505406 0.234677 0.0113167 4 1 0
0.0050535 0.234779 0.0113043 4 1 0
0.00505496 0.234511 0.0113367 4 1 0
0.00505441 0.234613 0.0113244 4 1 0
0.00505583 0.234351 0.0113561 4 1 0
0.00505527 0.234452 0.0113439 4 1 0
0.00505474 0.234551 0.0113319 4 1 0
0.00505418 0.234653 0.0113195 4 1 0
0.00505428 0.234636 0.0113216 4 1 0
0.00505372 0.234738 0.0113092 4 1 0
0.00505494 0.234515 0.0113362 4 1 0
0.00505438 0.234617 0.0113239 3 1 0
0.00505383 0.234719 0.0113116 3 1 0
0.00505327 0.234821 0.0112992 3 1 0
0.00505272 0.234924 0.0112868 3 1 0
0.00505216 0.235026 0.0112744 3 1 0
0.00505161 0.235129 0.0112621 3 1 0
0.00505105 0.235232 0.0112497 3 1 0
0.0050505 0.235334 0.0112374 3 1 0
0.00504994 0.235437 0.0112251 3 1 0
0.00504939 0.23554 0.0112127 3 1 0
0.00504883 0.235642 0.0112005 3 1 0
0.00504828 0.235745 0.0111882 3 1 0
0.00504772 0.235848 0.0111759 3 1 0
0.00504717 0.23595 0.0111637 3 1 0
0.00504661 0.236053 0.0111514 3 1 0
0.00504606 0.236156 0.0111391 3 1 0
0.0050455 0.236259 0.0111269 3 1 0
0.00504494 0.236362 0.0111148 3 1 0
0.00504439 0.236465 0.0111025 3 1 0
0.00504383 0.236567 0.0110903 3 1 0
0.00504328 0.236671 0.0110782 3 1 0
0.00504272 0.236774 0.011066 3 1 0
0.00504216 0.236876 0.0110538 3 1 0
0.00504161 0.23698 0.0110417 3 1 0
0.00504105 0.237083 0.0110296 3 1 0
0.00504049 0.237186 0.0110175 3 1 0
0.00503993 0.237289 0.0110054 3 1 0
0.00503938 0.237393 0.0109932 3 1 0
0.00503882 0.237495 0.0109812 3 1 0
0.00503826 0.237598 0.0109691 3 1 0
0.00503771 0.237703 0.010957 3 1 0
0.00503715 0.237805 0.010945 3 1 0
0.00503659 0.237908 0.010933 3 1 0
0.00503603 0.238013 0.0109209 3 1 0
0.00503547 0.238116 0.0109089 3 1 0
0.00503492 0.238219 0.0108969 3 1 0
0.00503436 0.238322 0.0108849 3 1 0
0.0050338 0.238426 0.0108729 3 1 0
0.00503324 0.238529 0.010861 3 1 0
0.00503268 0.238632 0.0108491 3 1 0
0.00503212 0.238736 0.0108372 3 1 0
0.00503156 0.23884 0.0108252 3 1 0
0.00503101 0.238942 0.0108134 3 1 0
0.00503045 0.239046 0.0108014 3 1 0
0.00502989 0.23915 0.0107895 3 1 0
0.00502933 0.239253 0.0107777 3 1 0
0.00502877 0.239356 0.0107658 3 1 0
0.00502821 0.23946 0.0107539 3 1 0
0.00502765 0.239564 0.0107421 3 1 0
0.00502709 0.239668 0.0107302 3 1 0
0.00502653 0.239772 0.0107184 3 1 0
0.00502597 0.239877 0.0107067 3 1 0
0.00502541 0.239981 0.0106948 3 1 0
0.00502485 0.240085 0.010683 3 1 0
0.00502429 0.240188 0.0106712 3 1 0
0.00502373 0.240292 0.0106595 3 1 0
0.00502317 0.240396 0.0106477 3 1 0
0.00502261 0.2405 0.0106358 3 1 0
0.00502205 0.240605 0.010624 3 1 0
0.00502149 0.240709 0.0106123 3 1 0
0.00502093 0.240813 0.0106004 3 1 0
0.00502036 0.240917 0.0105887 3 1 0
0.0050198 0.241022 0.010577 3 1 0
0.00501924 0.241125 0.0105652 3 1 0
0.00501868 0.24123 0.0105535 3 1 0
0.00501812 0.241334 0.0105419 3 1 0
0.00501756 0.241438 0.0105301 3 1 0
0.00501699 0.241543 0.0105184 3 1 0
0.00501643 0.241647 0.0105068 3 1 0
0.00501587 0.241751 0.0104951 3 1 0
0.00501531 0.241855 0.0104834 3 1 0
0.00501475 0.24196 0.0104718 3 1 0
0.00501418 0.242064 0.0104602 3 1 0
0.00501362 0.242168 0.0104486 3 1 0
0.00501306 0.242273 0.010437 3 1 0
0.0050125 0.242377 0.0104255 3 1 0
0.00501193 0.242481 0.0104139 3 1 0
0.00501137 0.242586 0.0104024 3 1 0
0.00501081 0.24269 0.010391 3 1 0
0.00501024 0.242794 0.0103795 3 1 0
0.00500968 0.242898 0.0103679 3 1 0
0.00500912 0.243002 0.0103564 3 1 0
0.00500855 0.243107 0.0103449 3 1 0
0.00500799 0.243211 0.0103334 3 1 0
0.00500742 0.243315 0.0103217 3 1 0
0.00500686 0.243419 0.0103102 3 1 0
0.0050063 0.243524 0.0102988 3 1 0
0.00500573 0.243628 0.0102873 3 1 0
0.00500517 0.243733 0.0102758 3 1 0
0.0050046 0.243837 0.0102644 3 1 0
0.00500404 0.243941 0.010253 3 1 0
0.00500347 0.244046 0.0102416 3 1 0
0.00500291 0.244151 0.0102302 3 1 0
0.00500234 0.244256 0.0102188 3 1 0
0.00500178 0.244361 0.0102074 3 1 0
0.00500121 0.244466 0.010196 3 1 0
0.00500065 0.244571 0.0101847 3 1 0
0.00500008 0.244676 0.0101733 3 1 0
0.00499952 0.244781 0.0101619 3 1 0
0.00499895 0.244887 0.0101507 3 1 0
0.00499839 0.244992 0.0101393 3 1 0
0.00499782 0.245097 0.010128 3 1 0
0.00499725 0.245204 0.0101171 3 1 0
0.00499669 0.245309 0.0101058 3 1 0
0.00499612 0.245414 0.0100945 3 1 0
0.00499556 0.245519 0.010083 3 1 0
0.00499499 0.245624 0.0100717 3 1 0
0.00499442 0.24573 0.0100604 3 1 0
0.00499386 0.245834 0.0100491 3 1 0
0.00499329 0.24594 0.0100379 3 1 0
0.00499272 0.246045 0.0100267 3 1 0
0.00499215 0.24615 0.0100155 3 1 0
0.00499159 0.246256 0.0100042 3 1 0
0.00499102 0.246361 0.00999306 3 1 0
0.00499045 0.246466 0.00998187 3 1 0
0.00498988 0.246572 0.00997069 3 1 0
0.00498932 0.246678 0.00995953 3 1 0
0.00498875 0.246783 0.00994839 3 1 0
0.00498818 0.246889 0.00993724 3 1 0
0.00498761 0.246994 0.00992611 3 1 0
0.00498704 0.2471 0.00991501 3 1 0
0.00498648 0.247206 0.00990389 3 1 0
0.00498591 0.247311 0.00989279 3 1 0
0.00498534 0.247417 0.00988172 3 1 0
0.00498477 0.247523 0.00987064 3 1 0
0.0049842 0.247629 0.00985957 3 1 0
0.00498363 0.247734 0.00984855 3 1 0
0.00498306 0.24784 0.0098375 3 1 0
0.00498249 0.247946 0.00982646 3 1 0
0.00498193 0.248051 0.0098155 3 1 0
0.00498136 0.248157 0.00980448 3 1 0
0.00498079 0.248263 0.00979346 3 1 0
0.00498022 0.248369 0.00978257 3 1 0
0.00497965 0.248475 0.00977157 3 1 0
0.00497908 0.248581 0.00976059 3 1 0
0.00497851 0.248687 0.00974982 3 1 0
0.00497794 0.248793 0.00973885 3 1 0
0.00497737 0.248899 0.00972789 3 1 0
0.0049768 0.249005 0.00971677 3 1 0
0.00497623 0.249111 0.00970585 3 1 0
0.00497566 0.249217 0.00969495 3 1 0
0.00497508 0.249323 0.00968387 3 1 0
0.00497451 0.249429 0.00967298 3 1 0
0.00497394 0.249536 0.0096621 3 1 0
0.00497337 0.24964 0.00965136 3 1 0
0.0049728 0.249746 0.0096405 3 1 0
0.00497223 0.249852 0.00962966 3 1 0
0.00497166 0.24996 0.00961885 3 1 0
0.00497109 0.250066 0.00960803 3 1 0
0.00497051 0.250173 0.00959721 3 1 0
0.00496994 0.250279 0.00958644 3 1 0
0.00496937 0.250386 0.00957564 3 1 0
0.0049688 0.250492 0.00956486 3 1 0
0.00496823 0.250599 0.00955395 3 1 0
0.00496765 0.250705 0.00954319 3 1 0
0.00496708 0.250811 0.00953243 3 1 0
0.00496651 0.250918 0.00952163 3 1 0
0.00496594 0.251024 0.00951089 3 1 0
0.00496536 0.251131 0.00950016 3 1 0
0.00496479 0.251237 0.00948936 3 1 0
0.00496422 0.251344 0.00947865 3 1 0
0.00496364 0.25145 0.00946795 3 1 0
0.00496307 0.251557 0.00945713 3 1 0
0.0049625 0.251663 0.00944645 3 1 0
0.00496192 0.25177 0.00943577 3 1 0
0.00496135 0.251876 0.00942506 3 1 0
0.00496078 0.251982 0.0094144 3 1 0
0.0049602 0.252089 0.00940375 3 1 0
0.00495963 0.252198 0.00939312 3 1 0
0.00495905 0.252304 0.00938249 3 1 0
0.00495848 0.252411 0.00937187 3 1 0
0.00495791 0.252518 0.0093613 3 1 0
0.00495733 0.252625 0.00935071 3 1 0
0.00495676 0.252731 0.00934012 3 1 0
0.00495618 0.252839 0.00932957 3 1 0
0.00495561 0.252946 0.00931901 3 1 0
0.00495503 0.253053 0.00930846 3 1 0
0.00495446 0.25316 0.00929786 3 1 0
0.00495388 0.253267 0.00928733 3 1 0
0.00495331 0.253374 0.0092768 3 1 0
0.00495273 0.253481 0.00926634 3 1 0
0.00495216 0.253589 0.00925584 3 1 0
0.00495158 0.253696 0.00924535 3 1 0
0.004951 0.253803 0.0092349 3 1 0
0.00495043 0.25391 0.00922443 3 1 0
0.00494985 0.254017 0.00921397 3 1 0
0.00494928 0.254125 0.00920354 3 1 0
0.0049487 0.254232 0.0091931 3 1 0
0.00494812 0.254339 0.00918266 3 1 0
0.00494755 0.254447 0.00917227 3 1 0
0.00494697 0.254554 0.00916186 3 1 0
0.00494639 0.254662 0.00915146 3 1 0
0.00494582 0.254768 0.00914099 3 1 0
0.00494524 0.254876 0.0091306 3 1 0
0.00494466 0.254984 0.00912023 3 1 0
0.00494409 0.255091 0.00910983 3 1 0
0.00494351 0.255199 0.00909948 3 1 0
0.00494293 0.255306 0.00908913 3 1 0
0.00494235 0.255414 0.00907871 3 1 0
0.00494178 0.255521 0.00906838 3 1 0
0.0049412 0.255629 0.00905806 3 1 0
0.00494062 0.255737 0.00904767 3 1 0
0.00494004 0.255845 0.00903737 3 1 0
0.00493946 0.255952 0.00902708 3 1 0
0.00493888 0.25606 0.00901692 3 1 0
0.00493831 0.256168 0.00900665 3 1 0
0.00493773 0.256276 0.00899639 3 1 0
0.00493715 0.256383 0.00898622 3 1 0
0.00493657 0.256491 0.00897597 3 1 0
0.00493599 0.256599 0.00896571 3 1 0
0.00493541 0.256706 0.00895545 3 1 0
0.00493483 0.256814 0.00894521 3 1 0
0.00493425 0.256922 0.00893499 3 1 0
0.00493367 0.25703 0.00892476 3 1 0
0.00493309 0.257138 0.00891456 3 1 0
0.00493251 0.257246 0.00890436 3 1 0
0.00493193 0.257354 0.00889418 3 1 0
0.00493135 0.257462 0.00888401 3 1 0
0.00493077 0.25757 0.00887384 3 1 0
0.00493019 0.257677 0.0088637 3 1 0
0.00492961 0.257786 0.00885355 3 1 0
0.00492903 0.257894 0.00884342 3 1 0
0.00492845 0.258002 0.00883332 3 1 0
0.00492787 0.258111 0.0088232 3 1 0
0.00492729 0.258219 0.0088131 3 1 0
0.00492671 0.258327 0.00880302 3 1 0
0.00492613 0.258435 0.00879293 3 1 0
0.00492555 0.258544 0.00878285 3 1 0
0.00492497 0.258651 0.0087729 3 1 0
0.00492439 0.25876 0.00876284 3 1 0
0.00492381 0.258869 0.00875279 3 1 0
0.00492322 0.258977 0.00874282 3 1 0
0.00492264 0.259086 0.00873281 3 1 0
0.00492206 0.259195 0.00872281 3 1 0
0.00492148 0.259302 0.00871278 3 1 0
0.0049209 0.259411 0.00870277 3 1 0
0.00492031 0.25952 0.00869277 3 1 0
0.00491973 0.259628 0.00868279 3 1 0
0.00491915 0.259737 0.00867282 3 1 0
0.00491857 0.259846 0.00866285 3 1 0
0.00491798 0.259954 0.00865291 3 1 0
0.0049174 0.260063 0.00864296 3 1 0
0.00491682 0.260172 0.00863302 3 1 0
0.00491623 0.260281 0.0086232 3 1 0
0.00491565 0.26039 0.00861327 3 1 0
0.00491507 0.260499 0.00860336 3 1 0
0.00491449 0.260609 0.00859342 3 1 0
0.0049139 0.260718 0.00858355 3 1 0
0.00491332 0.260827 0.00857369 3 1 0
0.00491273 0.260936 0.00856373 3 1 0
0.00491215 0.261045 0.00855388 3 1 0
0.00491157 0.261154 0.00854405 3 1 0
0.00491098 0.261263 0.00853413 3 1 0
0.0049104 0.261372 0.00852431 3 1 0
0.00490981 0.261481 0.00851451 3 1 0
0.00490923 0.26159 0.00850462 3 1 0
0.00490864 0.261699 0.00849483 3 1 0
0.00490806 0.261809 0.00848504 3 1 0
0.00490748 0.261918 0.00847517 3 1 0
0.00490689 0.262027 0.0084654 3 1 0
0.00490631 0.262137 0.00845565 3 1 0
0.00490572 0.262246 0.00844585 3 1 0
0.00490513 0.262355 0.00843611 3 1 0
0.00490455 0.262465 0.00842638 3 1 0
0.00490396 0.262574 0.00841667 3 1 0
0.00490338 0.262683 0.00840696 3 1 0
0.00490279 0.262793 0.00839726 3 1 0
0.00490221 0.262902 0.00838756 3 1 0
0.00490162 0.263011 0.00837787 3 1 0
0.00490103 0.263121 0.0083682 3 1 0
0.00490045 0.26323 0.00835851 3 1 0
0.00489986 0.26334 0.00834886 3 1 0
0.00489928 0.26345 0.00833921 3 1 0
0.00489869 0.263559 0.00832958 3 1 0
0.0048981 0.263668 0.00831995 3 1 0
0.00489751 0.263778 0.00831033 3 1 0
0.00489693 0.263888 0.00830072 3 1 0
0.00489634 0.263997 0.00829112 3 1 0
0.00489575 0.264107 0.00828153 3 1 0
0.00489517 0.264217 0.00827191 3 1 0
0.00489458 0.264327 0.00826233 3 1 0
0.00489399 0.264437 0.00825276 3 1 0
0.0048934 0.264546 0.00824325 3 1 0
0.00489282 0.264656 0.0082337 3 1 0
0.00489223 0.264766 0.00822417 3 1 0
0.00489164 0.264876 0.00821472 3 1 0
0.00489105 0.264986 0.00820521 3 1 0
0.00489046 0.265096 0.0081957 3 1 0
0.00488988 0.265205 0.00818626 3 1 0
0.00488929 0.265316 0.00817677 3 1 0
0.0048887 0.265426 0.00816729 3 1 0
0.00488811 0.265535 0.00815787 3 1 0
0.00488752 0.265646 0.00814841 3 1 0
0.00488693 0.265756 0.00813896 3 1 0
0.00488634 0.265866 0.00812955 3 1 0
0.00488575 0.265976 0.00812012 3 1 0
0.00488516 0.266086 0.0081107 3 1 0
0.00488457 0.266196 0.0081013 3 1 0
0.00488399 0.266306 0.00809187 3 1 0
0.0048834 0.266417 0.00808246 3 1 0
0.00488281 0.266527 0.00807304 3 1 0
0.00488222 0.266637 0.00806364 3 1 0
0.00488163 0.266748 0.00805425 3 1 0
0.00488104 0.266857 0.00804488 3 1 0
0.00488045 0.266968 0.00803551 3 1 0
0.00487986 0.267078 0.00802615 3 1 0
0.00487926 0.267188 0.00801683 3 1 0
0.00487867 0.267299 0.00800749 3 1 0
0.00487808 0.26741 0.00799815 3 1 0
0.00487749 0.267519 0.00798893 3 1 0
0.0048769 0.26763 0.00797962 3 1 0
0.00487631 0.267741 0.00797031 3 1 0
0.00487572 0.267849 0.00796089 3 1 0
0.00487513 0.26796 0.0079516 3 1 0
0.00487454 0.268071 0.00794232 3 1 0
0.00487395 0.268183 0.00793301 3 1 0
0.00487335 0.268294 0.00792375 3 1 0
0.00487276 0.268405 0.0079145 3 1 0
0.00487217 0.268514 0.00790524 3 1 0
0.00487158 0.268625 0.00789601 3 1 0
0.00487099 0.268736 0.00788679 3 1 0
0.00487039 0.268847 0.00787757 3 1 0
0.0048698 0.268958 0.00786837 3 1 0
0.00486921 0.269069 0.00785917 3 1 0
0.00486862 0.269181 0.00785 3 1 0
0.00486802 0.269292 0.00784082 3 1 0
0.00486743 0.269403 0.00783165 3 1 0
0.00486684 0.269514 0.00782251 3 1 0
0.00486624 0.269626 0.00781335 3 1 0
0.00486565 0.269737 0.00780421 3 1 0
0.00486506 0.269848 0.00779509 3 1 0
0.00486447 0.269959 0.00778597 3 1 0
0.00486387 0.27007 0.00777685 3 1 0
0.00486328 0.270181 0.00776775 3 1 0
0.00486268 0.270293 0.00775865 3 1 0
0.00486209 0.270404 0.00774957 3 1 0
0.0048615 0.270515 0.0077405 3 1 0
0.0048609 0.270627 0.00773142 3 1 0
0.00486031 0.270738 0.00772236 3 1 0
0.00485971 0.270849 0.00771332 3 1 0
0.00485912 0.270961 0.00770427 3 1 0
0.00485853 0.271072 0.00769524 3 1 0
0.00485793 0.271183 0.00768622 3 1 0
0.00485734 0.271295 0.0076772 3 1 0
0.00485674 0.271406 0.00766819 3 1 0
0.00485615 0.271516 0.00765918 3 1 0
0.00485555 0.271628 0.00765019 3 1 0
0.00485496 0.27174 0.00764121 3 1 0
0.00485436 0.271852 0.00763227 3 1 0
0.00485377 0.271964 0.0076233 3 1 0
0.00485317 0.272076 0.00761434 3 1 0
0.00485257 0.272187 0.00760542 3 1 0
0.00485198 0.272299 0.00759648 3 1 0
0.00485138 0.272411 0.00758755 3 1 0
0.00485079 0.272523 0.00757869 3 1 0
0.00485019 0.272635 0.00756977 3 1 0
0.00484959 0.272747 0.00756087 3 1 0
0.004849 0.272859 0.00755204 3 1 0
0.0048484 0.272971 0.00754315 3 1 0
0.0048478 0.273083 0.00753427 3 1 0
0.00484721 0.273195 0.00752553 3 1 0
0.00484661 0.273307 0.00751666 3 1 0
0.00484601 0.273419 0.0075078 3 1 0
0.00484542 0.273531 0.00749891 3 1 0
0.00484482 0.273643 0.00749009 3 1 0
0.00484422 0.273755 0.00748127 3 1 0
0.00484363 0.273867 0.00747241 3 1 0
0.00484303 0.273979 0.00746362 3 1 0
0.00484243 0.274091 0.00745483 3 1 0
0.00484183 0.274203 0.00744616 3 1 0
0.00484124 0.274315 0.00743737 3 1 0
0.00484064 0.274427 0.00742858 3 1 0
0.00484004 0.27454 0.0074197 3 1 0
0.00483944 0.274652 0.00741094 3 1 0
0.00483884 0.274764 0.00740219 3 1 0
0.00483825 0.274876 0.00739341 3 1 0
0.00483765 0.274989 0.00738467 3 1 0
0.00483705 0.275101 0.00737594 3 1 0
0.00483645 0.275214 0.00736721 3 1 0
0.00483585 0.275326 0.0073585 3 1 0
0.00483525 0.275438 0.0073498 3 1 0
0.00483465 0.275551 0.0073411 3 1 0
0.00483405 0.275663 0.00733242 3 1 0
0.00483345 0.275776 0.00732375 3 1 0
0.00483286 0.275888 0.00731508 3 1 0
0.00483226 0.276001 0.00730642 3 1 0
0.00483166 0.276113 0.00729778 3 1 0
0.00483106 0.276226 0.00728915 3 1 0
0.00483046 0.276339 0.00728051 3 1 0
0.00482986 0.276451 0.00727189 3 1 0
0.00482926 0.276564 0.00726329 3 1 0
0.00482866 0.276677 0.00725469 3 1 0
0.00482806 0.276789 0.00724609 3 1 0
0.00482746 0.276902 0.00723751 3 1 0
0.00482686 0.277015 0.00722893 3 1 0
0.00482626 0.277128 0.00722036 3 1 0
0.00482565 0.277241 0.00721181 3 1 0
0.00482505 0.277354 0.00720326 3 1 0
0.00482445 0.277467 0.00719471 3 1 0
0.00482385 0.27758 0.0071862 3 1 0
0.00482325 0.277692 0.00717767 3 1 0
0.00482265 0.277805 0.00716915 3 1 0
0.00482205 0.277918 0.00716075 3 1 0
0.00482145 0.278031 0.00715224 3 1 0
0.00482085 0.278144 0.00714374 3 1 0
0.00482024 0.278258 0.00713518 3 1 0
0.00481964 0.278371 0.0071267 3 1 0
0.00481904 0.278484 0.00711823 3 1 0
0.00481844 0.278597 0.00710974 3 1 0
0.00481784 0.27871 0.00710129 3 1 0
0.00481723 0.278823 0.00709285 3 1 0
0.00481663 0.278937 0.0070844 3 1 0
0.00481603 0.27905 0.00707598 3 1 0
0.00481543 0.279163 0.00706756 3 1 0
0.00481482 0.279277 0.00705915 3 1 0
0.00481422 0.27939 0.00705075 3 1 0
0.00481362 0.279503 0.00704235 3 1 0
0.00481302 0.279617 0.00703397 3 1 0
0.00481241 0.27973 0.00702559 3 1 0
0.00481181 0.279844 0.00701723 3 1 0
0.00481121 0.279958 0.00700887 3 1 0
0.0048106 0.280071 0.00700052 3 1 0
0.00481 0.280184 0.00699218 3 1 0
0.0048094 0.280298 0.00698385 3 1 0
0.00480879 0.280412 0.00697552 3 1 0
0.00480819 0.280525 0.00696721 3 1 0
0.00480759 0.280639 0.0069589 3 1 0
0.00480698 0.280753 0.0069506 3 1 0
0.00480638 0.280867 0.00694231 3 1 0
0.00480577 0.28098 0.00693402 3 1 0
0.00480517 0.281094 0.00692575 3 1 0
0.00480456 0.281208 0.00691748 3 1 0
0.00480396 0.281321 0.00690922 3 1 0
0.00480335 0.281435 0.00690097 3 1 0
0.00480275 0.281549 0.00689273 3 1 0
0.00480215 0.281663 0.0068845 3 1 0
0.00480154 0.281777 0.00687627 3 1 0
0.00480094 0.281891 0.00686805 3 1 0
0.00480033 0.282005 0.00685984 3 1 0
0.00479973 0.282119 0.00685164 3 1 0
0.00479912 0.282233 0.00684345 3 1 0
0.00479851 0.282347 0.00683526 3 1 0
0.00479791 0.282461 0.00682709 3 1 0
0.0047973 0.282575 0.00681892 3 1 0
0.0047967 0.282689 0.00681076 3 1 0
0.00479609 0.282803 0.00680261 3 1 0
0.00479549 0.282917 0.00679446 3 1 0
0.00479488 0.283032 0.00678633 3 1 0
0.00479427 0.283146 0.0067782 3 1 0
0.00479367 0.283261 0.00677008 3 1 0
0.00479306 0.283375 0.00676198 3 1 0
0.00479245 0.283489 0.00675387 3 1 0
0.00479185 0.283604 0.00674577 3 1 0
0.00479124 0.283718 0.0067377 3 1 0
0.00479063 0.283832 0.00672962 3 1 0
0.00479003 0.283947 0.00672154 3 1 0
0.00478942 0.284061 0.0067135 3 1 0
0.00478881 0.284175 0.00670544 3 1 0
0.00478821 0.28429 0.00669739 3 1 0
0.0047876 0.284402 0.00668939 3 1 0
0.00478699 0.284516 0.00668135 3 1 0
0.00478638 0.284631 0.00667333 3 1 0
0.00478578 0.284743 0.00666535 3 1 0
0.00478517 0.284857 0.00665734 3 1 0
0.00478456 0.284972 0.00664933 3 1 0
0.00478395 0.285087 0.00664141 3 1 0
0.00478334 0.285202 0.00663342 3 1 0
0.00478274 0.285317 0.00662544 3 1 0
0.00478213 0.285434 0.00661764 3 1 0
0.00478152 0.285549 0.00660969 3 1 0
0.00478091 0.285664 0.00660175 3 1 0
0.0047803 0.285775 0.00659363 3 1 0
0.00477969 0.285891 0.00658569 3 1 0
0.00477908 0.286006 0.00657776 3 1 0
0.00477848 0.286124 0.00656999 3 1 0
0.00477787 0.286239 0.00656207 3 1 0
0.00477726 0.286354 0.00655416 3 1 0
0.00477665 0.286467 0.00654625 3 1 0
0.00477604 0.286581 0.00653835 3 1 0
0.00477543 0.286696 0.00653047 3 1 0
0.00477482 0.286815 0.00652254 3 1 0
0.00477421 0.286929 0.00651467 3 1 0
0.0047736 0.287044 0.00650681 3 1 0
0.00477299 0.287158 0.00649895 3 1 0
0.00477238 0.287273 0.00649111 3 1 0
0.00477177 0.287387 0.00648329 3 1 0
0.00477116 0.287502 0.00647557 3 1 0
0.00477055 0.287617 0.00646777 3 1 0
0.00476994 0.287733 0.00645997 3 1 0
0.00476933 0.287849 0.00645204 3 1 0
0.00476872 0.287965 0.00644424 3 1 0
0.00476811 0.288081 0.00643645 3 1 0
0.0047675 0.288194 0.00642865 3 1 0
0.00476689 0.288309 0.00642088 3 1 0
0.00476628 0.288425 0.00641311 3 1 0
0.00476567 0.28854 0.0064054 3 1 0
0.00476506 0.288656 0.00639765 3 1 0
0.00476444 0.288772 0.00638991 3 1 0
0.00476383 0.288888 0.00638213 3 1 0
0.00476322 0.289004 0.00637441 3 1 0
0.00476261 0.28912 0.00636669 3 1 0
0.004762 0.289235 0.00635897 3 1 0
0.00476139 0.289351 0.00635127 3 1 0
0.00476078 0.289467 0.00634358 3 1 0
0.00476016 0.289583 0.00633589 3 1 0
0.00475955 0.289699 0.00632821 3 1 0
0.00475894 0.289815 0.00632054 3 1 0
0.00475833 0.28993 0.00631289 3 1 0
0.00475772 0.290046 0.00630524 3 1 0
0.0047571 0.290163 0.00629759 3 1 0
0.00475649 0.290278 0.00628996 3 1 0
0.00475588 0.290394 0.00628233 3 1 0
0.00475527 0.29051 0.00627471 3 1 0
0.00475465 0.290626 0.0062671 3 1 0
0.00475404 0.290742 0.0062595 3 1 0
0.00475343 0.290858 0.0062519 3 1 0
0.00475281 0.290974 0.00624432 3 1 0
0.0047522 0.291091 0.00623674 3 1 0
0.00475159 0.291207 0.00622917 3 1 0
0.00475098 0.291323 0.00622162 3 1 0
0.00475036 0.29144 0.00621406 3 1 0
0.00474975 0.291556 0.00620651 3 1 0
0.00474913 0.291672 0.00619895 3 1 0
0.00474852 0.291789 0.00619142 3 1 0
0.00474791 0.291905 0.00618389 3 1 0
0.00474729 0.29202 0.00617637 3 1 0
0.00474668 0.292137 0.00616886 3 1 0
0.00474607 0.292253 0.00616135 3 1 0
0.00474545 0.292369 0.00615386 3 1 0
0.00474484 0.292486 0.00614637 3 1 0
0.00474422 0.292603 0.0061389 3 1 0
0.00474361 0.292719 0.00613143 3 1 0
0.00474299 0.292836 0.00612396 3 1 0
0.00474238 0.292953 0.00611651 3 1 0
0.00474176 0.293069 0.00610906 3 1 0
0.00474115 0.293185 0.00610162 3 1 0
0.00474053 0.293302 0.00609419 3 1 0
0.00473992 0.293419 0.00608676 3 1 0
0.0047393 0.293536 0.00607934 3 1 0
0.00473869 0.293653 0.00607194 3 1 0
0.00473807 0.293769 0.00606453 3 1 0
0.00473746 0.293886 0.00605713 3 1 0
0.00473684 0.294003 0.00604975 3 1 0
0.00473623 0.29412 0.00604236 3 1 0
0.00473561 0.294237 0.00603499 3 1 0
0.004735 0.294354 0.00602763 3 1 0
0.00473438 0.29447 0.00602027 3 1 0
0.00473377 0.294587 0.00601292 3 1 0
0.00473315 0.294704 0.00600558 3 1 0
0.00473253 0.294821 0.00599824 3 1 0
0.00473192 0.294938 0.00599092 3 1 0
0.0047313 0.295055 0.0059836 3 1 0
0.00473068 0.295172 0.00597628 3 1 0
0.00473007 0.295289 0.00596898 3 1 0
0.00472945 0.295407 0.00596169 3 1 0
0.00472883 0.295524 0.00595439 3 1 0
0.00472822 0.295641 0.00594711 3 1 0
0.0047276 0.295758 0.00593984 3 1 0
0.00472698 0.295875 0.00593257 3 1 0
0.00472637 0.295992 0.00592531 3 1 0
0.00472575 0.29611 0.00591806 3 1 0
0.00472513 0.296227 0.00591082 3 1 0
0.00472452 0.296344 0.00590358 3 1 0
0.0047239 0.296462 0.00589635 3 1 0
0.00472328 0.296579 0.00588916 3 1 0
0.00472266 0.296696 0.00588194 3 1 0
0.00472205 0.296814 0.00587473 3 1 0
0.00472143 0.296931 0.00586751 3 1 0
0.00472081 0.297048 0.00586032 3 1 0
0.00472019 0.297166 0.00585314 3 1 0
0.00471957 0.297283 0.00584596 3 1 0
0.00471896 0.297401 0.00583879 3 1 0
0.00471834 0.297518 0.00583163 3 1 0
0.00471772 0.297636 0.00582448 3 1 0
0.0047171 0.297753 0.00581734 3 1 0
0.00471648 0.297871 0.0058102 3 1 0
0.00471586 0.297989 0.00580307 3 1 0
0.00471525 0.298106 0.00579594 3 1 0
0.00471463 0.298224 0.00578883 3 1 0
0.00471401 0.298342 0.00578172 3 1 0
0.00471339 0.298459 0.00577462 3 1 0
0.00471277 0.298577 0.00576753 3 1 0
0.00471215 0.298695 0.00576044 3 1 0
0.00471153 0.298813 0.00575336 3 1 0
0.00471091 0.298931 0.00574629 3 1 0
0.00471029 0.299048 0.00573922 3 1 0
0.00470967 0.299166 0.00573217 3 1 0
0.00470906 0.299284 0.00572512 3 1 0
0.00470844 0.299402 0.00571807 3 1 0
0.00470782 0.29952 0.00571104 3 1 0
0.0047072 0.299638 0.00570401 3 1 0
0.00470658 0.299756 0.00569699 3 1 0
0.00470596 0.299874 0.00568998 3 1 0
0.00470534 0.299992 0.00568297 3 1 0
0.00470472 0.30011 0.00567597 3 1 0
0.0047041 0.300228 0.00566898 3 1 0
0.00470348 0.300347 0.005662 3 1 0
0.00470286 0.300464 0.00565502 3 1 0
0.00470224 0.300583 0.00564805 3 1 0
0.00470161 0.300701 0.00564109 3 1 0
0.00470099 0.300819 0.00563412 3 1 0
0.00470037 0.300938 0.00562718 3 1 0
0.00469975 0.301056 0.00562024 3 1 0
0.00469913 0.301174 0.0056133 3 1 0
0.00469851 0.301293 0.00560637 3 1 0
0.00469789 0.301411 0.00559945 3 1 0
0.00469727 0.301529 0.00559254 3 1 0
0.00469665 0.301648 0.00558564 3 1 0
0.00469603 0.301766 0.00557874 3 1 0
0.00469541 0.301884 0.00557187 3 1 0
0.00469478 0.302002 0.00556499 3 1 0
0.00469416 0.302121 0.00555811 3 1 0
0.00469354 0.30224 0.00555123 3 1 0
0.00469292 0.302358 0.00554436 3 1 0
0.0046923 0.302476 0.00553751 3 1 0
0.00469168 0.302596 0.00553067 3 1 0
0.00469105 0.302714 0.00552383 3 1 0
0.00469043 0.302833 0.005517 3 1 0
0.00468981 0.302952 0.00551019 3 1 0
0.00468919 0.303071 0.00550338 3 1 0
0.00468857 0.303189 0.00549657 3 1 0
0.00468794 0.303308 0.00548978 3 1 0
0.00468732 0.303427 0.00548299 3 1 0
0.0046867 0.303546 0.0054762 3 1 0
0.00468608 0.303665 0.00546943 3 1 0
0.00468545 0.303783 0.00546266 3 1 0
0.00468483 0.303902 0.0054559 3 1 0
0.00468421 0.304021 0.00544915 3 1 0
0.00468358 0.30414 0.0054424 3 1 0
0.00468296 0.304259 0.00543566 3 1 0
0.00468234 0.304378 0.00542893 3 1 0
0.00468172 0.304497 0.0054222 3 1 0
0.00468109 0.304616 0.00541548 3 1 0
0.00468047 0.304735 0.00540877 3 1 0
0.00467985 0.304854 0.00540207 3 1 0
0.00467922 0.304973 0.00539537 3 1 0
0.0046786 0.305093 0.00538869 3 1 0
0.00467797 0.305212 0.005382 3 1 0
0.00467735 0.305331 0.00537533 3 1 0
0.00467673 0.30545 0.00536867 3 1 0
0.0046761 0.305569 0.00536201 3 1 0
0.00467548 0.305688 0.00535536 3 1 0
0.00467486 0.305807 0.00534875 3 1 0
0.00467423 0.305927 0.00534211 3 1 0
0.00467361 0.306046 0.00533548 3 1 0
0.00467298 0.306167 0.00532883 3 1 0
0.00467236 0.306286 0.00532221 3 1 0
0.00467173 0.306406 0.0053156 3 1 0
0.00467111 0.306526 0.0053089 3 1 0
0.00467049 0.306645 0.0053023 3 1 0
0.00466986 0.306764 0.00529571 3 1 0
0.00466924 0.306884 0.00528908 3 1 0
0.00466861 0.307004 0.00528251 3 1 0
0.00466799 0.307123 0.00527594 3 1 0
0.00466736 0.307242 0.0052693 3 1 0
0.00466674 0.307361 0.00526275 3 1 0
0.00466611 0.307481 0.0052562 3 1 0
0.00466549 0.307599 0.00524973 3 1 0
0.00466486 0.307719 0.00524319 3 1 0
0.00466424 0.307838 0.00523666 3 1 0
0.00466361 0.30796 0.00523018 3 1 0
0.00466298 0.30808 0.00522366 3 1 0
0.00466236 0.308199 0.00521716 3 1 0
0.00466173 0.308321 0.00521065 3 1 0
0.00466111 0.30844 0.00520416 3 1 0
0.00466048 0.30856 0.00519768 3 1 0
0.00465986 0.30868 0.00519121 3 1 0
0.00465923 0.3088 0.00518474 3 1 0
0.0046586 0.308919 0.00517828 3 1 0
0.00465798 0.309041 0.00517192 3 1 0
0.00465735 0.309161 0.00516548 3 1 0
0.00465673 0.309281 0.00515904 3 1 0
0.0046561 0.309401 0.00515248 3 1 0
0.00465547 0.309521 0.00514605 3 1 0
0.00465485 0.309641 0.00513963 3 1 0
0.00465422 0.30976 0.00513321 3 1 0
0.00465359 0.30988 0.00512681 3 1 0
0.00465297 0.31 0.0051204 3 1 0
0.00465234 0.310119 0.00511404 3 1 0
0.00465171 0.310239 0.00510765 3 1 0
0.00465109 0.310359 0.00510128 3 1 0
0.00465046 0.31048 0.00509482 3 1 0
0.00464983 0.3106 0.00508845 3 1 0
0.00464921 0.31072 0.00508209 3 1 0
0.00464858 0.310838 0.00507573 3 1 0
0.00464795 0.310958 0.00506939 3 1 0
0.00464732 0.311078 0.00506305 3 1 0
0.0046467 0.311202 0.00505673 3 1 0
0.00464607 0.311323 0.0050504 3 1 0
0.00464544 0.311444 0.00504409 3 1 0
0.00464481 0.311561 0.00503764 3 1 0
0.00464419 0.311682 0.00503133 3 1 0
0.00464356 0.311803 0.00502503 3 1 0
0.00464293 0.311923 0.00501866 3 1 0
0.0046423 0.312043 0.00501237 3 1 0
0.00464168 0.312164 0.00500609 3 1 0
0.00464105 0.312284 0.0049998 3 1 0
0.00464042 0.312405 0.00499353 3 1 0
0.00463979 0.312525 0.00498727 3 1 0
0.00463916 0.312647 0.00498099 3 1 0
0.00463853 0.312768 0.00497475 3 1 0
0.00463791 0.312889 0.00496851 3 1 0
0.00463728 0.31301 0.00496224 3 1 0
0.00463665 0.313132 0.00495602 3 1 0
0.00463602 0.313253 0.0049498 3 1 0
0.00463539 0.313373 0.00494355 3 1 0
0.00463476 0.313495 0.00493735 3 1 0
0.00463413 0.313616 0.00493115 3 1 0
0.00463351 0.313736 0.00492492 3 1 0
0.00463288 0.313858 0.00491873 3 1 0
0.00463225 0.313979 0.00491256 3 1 0
0.00463162 0.3141 0.00490635 3 1 0
0.00463099 0.314221 0.00490019 3 1 0
0.00463036 0.314343 0.00489403 3 1 0
0.00462973 0.314463 0.00488785 3 1 0
0.0046291 0.314585 0.0048817 3 1 0
0.00462847 0.314706 0.00487556 3 1 0
0.00462784 0.314827 0.00486941 3 1 0
0.00462721 0.314949 0.00486328 3 1 0
0.00462658 0.315071 0.00485716 3 1 0
0.00462595 0.315191 0.00485103 3 1 0
0.00462533 0.315313 0.00484492 3 1 0
0.0046247 0.315434 0.00483882 3 1 0
0.00462407 0.315555 0.00483271 3 1 0
0.00462344 0.315677 0.00482662 3 1 0
0.00462281 0.315798 0.00482054 3 1 0
0.00462218 0.315919 0.00481445 3 1 0
0.00462155 0.316041 0.00480838 3 1 0
0.00462092 0.316163 0.00480232 3 1 0
0.00462029 0.316281 0.00479626 3 1 0
0.00461965 0.316403 0.00479021 3 1 0
0.00461902 0.316524 0.00478417 3 1 0
0.00461839 0.316651 0.00477814 3 1 0
0.00461776 0.316773 0.00477211 3 1 0
0.00461713 0.316894 0.00476608 3 1 0
0.0046165 0.317017 0.00476015 3 1 0
0.00461587 0.317138 0.00475414 3 1 0
0.00461524 0.31726 0.00474813 3 1 0
0.00461461 0.317382 0.00474211 3 1 0
0.00461398 0.317504 0.00473612 3 1 0
0.00461335 0.317626 0.00473013 3 1 0
0.00461272 0.317747 0.00472413 3 1 0
0.00461209 0.317869 0.00471816 3 1 0
0.00461146 0.317991 0.00471219 3 1 0
0.00461082 0.318113 0.00470625 3 1 0
0.00461019 0.318235 0.0047003 3 1 0
0.00460956 0.318358 0.00469435 3 1 0
0.00460893 0.31848 0.00468844 3 1 0
0.0046083 0.318602 0.00468251 3 1 0
0.00460767 0.318724 0.00467658 3 1 0
0.00460704 0.318846 0.00467075 3 1 0
0.0046064 0.318968 0.00466483 3 1 0
0.00460577 0.31909 0.00465892 3 1 0
0.00460514 0.319212 0.00465293 3 1 0
0.00460451 0.319334 0.00464703 3 1 0
0.00460388 0.319457 0.00464114 3 1 0
0.00460325 0.319578 0.00463523 3 1 0
0.00460261 0.319701 0.00462935 3 1 0
0.00460198 0.319823 0.00462349 3 1 0
0.00460135 0.319945 0.00461762 3 1 0
0.00460072 0.320067 0.00461177 3 1 0
0.00460009 0.32019 0.00460592 3 1 0
0.00459945 0.320312 0.00460009 3 1 0
0.00459882 0.320435 0.00459426 3 1 0
0.00459819 0.320557 0.00458843 3 1 0
0.00459756 0.320679 0.00458262 3 1 0
0.00459692 0.320802 0.00457681 3 1 0
0.00459629 0.320924 0.00457101 3 1 0
0.00459566 0.321046 0.00456522 3 1 0
0.00459503 0.321169 0.00455942 3 1 0
0.00459439 0.321292 0.00455364 3 1 0
0.00459376 0.321414 0.00454787 3 1 0
0.00459313 0.321537 0.00454209 3 1 0
0.00459249 0.321659 0.00453633 3 1 0
0.00459186 0.321782 0.00453058 3 1 0
0.00459123 0.321905 0.00452483 3 1 0
0.0045906 0.322027 0.00451908 3 1 0
0.00458996 0.32215 0.00451335 3 1 0
0.00458933 0.322273 0.00450762 3 1 0
0.0045887 0.322395 0.00450189 3 1 0
0.00458806 0.322518 0.00449619 3 1 0
0.00458743 0.322641 0.00449047 3 1 0
0.0045868 0.322764 0.00448477 3 1 0
0.00458616 0.322886 0.00447908 3 1 0
0.00458553 0.323009 0.00447339 3 1 0
0.0045849 0.323132 0.0044677 3 1 0
0.00458426 0.323255 0.004462 3 1 0
0.00458363 0.323378 0.00445633 3 1 0
0.00458299 0.323501 0.00445066 3 1 0
0.00458236 0.323624 0.00444499 3 1 0
0.00458173 0.323748 0.00443933 3 1 0
0.00458109 0.323871 0.00443368 3 1 0
0.00458046 0.323994 0.00442801 3 1 0
0.00457983 0.324117 0.00442237 3 1 0
0.00457919 0.32424 0.00441674 3 1 0
0.00457856 0.324363 0.00441109 3 1 0
0.00457792 0.324486 0.00440547 3 1 0
0.00457729 0.324609 0.00439986 3 1 0
0.00457665 0.324732 0.00439423 3 1 0
0.00457602 0.324855 0.00438863 3 1 0
0.00457539 0.324979 0.00438303 3 1 0
0.00457475 0.325102 0.00437742 3 1 0
0.00457412 0.325225 0.00437184 3 1 0
0.00457348 0.325348 0.00436627 3 1 0
0.00457285 0.325471 0.00436067 3 1 0
0.00457221 0.325595 0.00435511 3 1 0
0.00457158 0.325718 0.00434955 3 1 0
0.00457094 0.325841 0.00434398 3 1 0
0.00457031 0.325964 0.00433844 3 1 0
0.00456967 0.326087 0.0043329 3 1 0
0.00456904 0.326211 0.00432735 3 1 0
0.0045684 0.326334 0.00432182 3 1 0
0.00456777 0.326457 0.0043163 3 1 0
0.00456713 0.32658 0.00431077 3 1 0
0.0045665 0.326703 0.00430527 3 1 0
0.00456586 0.326827 0.00429976 3 1 0
0.00456523 0.32695 0.00429423 3 1 0
0.00456459 0.327074 0.00428875 3 1 0
0.00456396 0.327197 0.00428326 3 1 0
0.00456332 0.327321 0.00427771 3 1 0
0.00456269 0.327444 0.00427223 3 1 0
0.00456205 0.327567 0.00426677 3 1 0
0.00456142 0.327695 0.00426136 3 1 0
0.00456078 0.327818 0.00425591 3 1 0
0.00456015 0.327942 0.00425046 3 1 0
0.00455951 0.328065 0.00424504 3 1 0
0.00455887 0.328188 0.00423961 3 1 0
0.00455824 0.328312 0.00423418 3 1 0
0.0045576 0.328437 0.00422877 3 1 0
0.00455697 0.32856 0.00422336 3 1 0
0.00455633 0.328684 0.00421795 3 1 0
0.0045557 0.328808 0.00421255 3 1 0
0.00455506 0.328932 0.00420715 3 1 0
0.00455442 0.329056 0.00420176 3 1 0
0.00455379 0.329179 0.0041964 3 1 0
0.00455315 0.329303 0.00419103 3 1 0
0.00455252 0.329426 0.00418566 3 1 0
0.00455188 0.329555 0.00418023 3 1 0
0.00455124 0.329679 0.00417487 3 1 0
0.00455061 0.329803 0.00416952 3 1 0
0.00454997 0.329924 0.0041642 3 1 0
0.00454933 0.330048 0.00415886 3 1 0
0.0045487 0.330171 0.00415353 3 1 0
0.00454806 0.330301 0.00414819 3 1 0
0.00454743 0.330425 0.00414287 3 1 0
0.00454679 0.330549 0.00413755 3 1 0
0.00454615 0.330673 0.00413215 3 1 0
0.00454552 0.330797 0.00412685 3 1 0
0.00454488 0.330921 0.00412155 3 1 0
0.00454424 0.331047 0.00411625 3 1 0
0.00454361 0.331171 0.00411096 3 1 0
0.00454297 0.331295 0.00410568 3 1 0
0.00454233 0.33142 0.00410038 3 1 0
0.00454169 0.331545 0.00409511 3 1 0
0.00454106 0.331669 0.00408985 3 1 0
0.00454042 0.331794 0.00408456 3 1 0
0.00453978 0.331919 0.00407931 3 1 0
0.00453915 0.332043 0.00407407 3 1 0
0.00453851 0.332168 0.00406881 3 1 0
0.00453787 0.332293 0.00406358 3 1 0
0.00453724 0.332417 0.00405835 3 1 0
0.0045366 0.332542 0.00405309 3 1 0
0.00453596 0.332666 0.00404787 3 1 0
0.00453532 0.332791 0.00404266 3 1 0
0.00453469 0.332916 0.00403744 3 1 0
0.00453405 0.333041 0.00403224 3 1 0
0.00453341 0.333165 0.00402705 3 1 0
0.00453277 0.33329 0.00402184 3 1 0
0.00453214 0.333415 0.00401666 3 1 0
0.0045315 0.333539 0.00401148 3 1 0
0.00453086 0.333663 0.0040063 3 1 0
0.00453022 0.333788 0.00400113 3 1 0
0.00452959 0.333912 0.00399597 3 1 0
0.00452895 0.334034 0.00399082 3 1 0
0.00452831 0.334158 0.00398567 3 1 0
0.00452767 0.334283 0.00398053 3 1 0
0.00452704 0.33441 0.00397544 3 1 0
0.0045264 0.334535 0.00397031 3 1 0
0.00452576 0.334661 0.00396518 3 1 0
0.00452512 0.334785 0.00396009 3 1 0
